2.977 2.977 2.977 2.977 2.977 2.977 2.977 2.977 2.977 2.977 2.977 2.977 2.977 2.975 2.977 2.975 2.977 2.977 2.977 2.977 2.977 2.977 2.977 2.977 2.977 2.977 2.977 2.977 2.977 2.977 2.977 2.977 2.977 2.977 2.977 2.977 2.977 2.977 2.977 2.975 2.975 2.977 2.977 2.977 2.975 2.975 2.975 2.977 2.977 2.977 2.975 2.975 2.977 2.977 2.977 2.975 2.975 2.975 2.975 2.975 2.975 2.975 2.975 2.977 2.975 2.975 2.977 2.975 2.975 2.975 2.975 2.975 2.975 2.977 2.977 2.977 2.975 2.977 2.975 2.975 2.975 2.975 2.975 2.975 2.975 2.975 2.973 2.975 2.975 2.975 2.975 2.973 2.975 2.975 2.975 2.975 2.975 2.973 2.975 2.975 2.975 2.975 2.975 2.975 2.975 2.975 2.973 2.973 2.975 2.975 2.975 2.975 2.975 2.975 2.973 2.975 2.975 2.973 2.973 2.975 2.973 2.975 2.973 2.975 2.975 2.975 2.973 2.975 2.973 2.973 2.973 2.973 2.973 2.973 2.973 2.973 2.973 2.973 2.970 2.973 2.973 2.973 2.973 2.970 2.970 2.970 2.970 2.973 2.970 2.970 2.970 2.970 2.970 2.970 2.970 2.969 2.969 2.969 2.970 2.969 2.969 2.969 2.970 2.969 2.969 2.969 2.969 2.969 2.969 2.969 2.969 2.969 2.969 2.969 2.969 2.969 2.969 2.969 2.969 2.969 2.969 2.969 2.969 2.967 2.967 2.967 2.967 2.967 2.967 2.967 2.969 2.967 2.967 2.967 2.967 2.963 2.963 2.963 2.963 2.963 2.963 2.963 2.963 2.963 2.963 2.963 2.967 2.963 2.967 2.967 2.963 2.967 2.963 2.963 2.963 2.963 2.963 2.963 2.963 2.963 2.963 2.963 2.963 2.963 2.963 2.963 2.963 2.963 2.963 2.963 2.963 2.963 2.963 2.963 2.963 2.963 2.963 2.963 2.963 2.963 2.963 2.963 2.963 2.963 2.963 2.960 2.960 2.963 2.963 2.963 2.963 2.960 2.963 2.963 2.963 2.960 2.963 2.960 2.960 2.960 2.960 2.959 2.960 2.960 2.963 2.963 2.960 2.960 2.960 2.960 2.963 2.960 2.960 2.960 2.960 2.960 2.960 2.960 2.960 2.959 2.959 2.959 2.960 2.960 2.959 2.959 2.959 2.959 2.960 2.959 2.959 2.959 2.959 2.959 2.959 2.959 2.959 2.959 2.959 2.959 2.957 2.959 2.957 2.957 2.957 2.959 2.959 2.957 2.957 2.957 2.957 2.957 2.957 2.957 2.957 2.959 2.957 2.957 2.957 2.957 2.959 2.957 2.957 2.957 2.957 2.957 2.957 2.957 2.957 2.957 2.957 2.955 2.955 2.957 2.957 2.955 2.957 2.955 2.957 2.957 2.959 2.957 2.957 2.957 2.957 2.957 2.955 2.957 2.957 2.955 2.955 2.955 2.955 2.955 2.955 2.955 2.955 2.955 2.955 2.955 2.955 2.955 2.955 2.955 2.955 2.953 2.955 2.953 2.955 2.955 2.955 2.955 2.955 2.955 2.955 2.955 2.953 2.953 2.953 2.955 2.953 2.953 2.953 2.953 2.953 2.953 2.953 2.953 2.953 2.953 2.953 2.953 2.953 2.951 2.951 2.951 2.953 2.953 2.953 2.951 2.953 2.953 2.953 2.953 2.953 2.953 2.953 2.951 2.953 2.953 2.953 2.953 2.953 2.953 2.953 2.953 2.953 2.953 2.953 2.951 2.951 2.953 2.951 2.951 2.951 2.953 2.953 2.953 2.953 2.951 2.951 2.951 2.951 2.953 2.951 2.951 2.951 2.953 2.951 2.953 2.953 2.951 2.953 2.953 2.953 2.953 2.953 2.953 2.951 2.951 2.951 2.951 2.951 2.951 2.951 2.950 2.951 2.950 2.951 2.951 2.951 2.951 2.953 2.951 2.951 2.950 2.951 2.947 2.947 2.943 2.800 2.756 2.742 2.740 2.738 2.736 2.736 2.738 2.740 2.744 2.744 2.748 2.748 2.750 2.750 2.754 2.756 2.758 2.762 2.764 2.766 2.768 2.768 2.770 2.771 2.771 2.773
2.977 2.977 2.977 2.977 2.977 2.977 2.975 2.975 2.977 2.977 2.977 2.977 2.977 2.977 2.977 2.977 2.977 2.977 2.977 2.977 2.977 2.977 2.977 2.975 2.977 2.977 2.977 2.977 2.977 2.977 2.977 2.977 2.977 2.977 2.977 2.977 2.977 2.975 2.977 2.977 2.977 2.977 2.975 2.977 2.977 2.975 2.975 2.975 2.977 2.977 2.975 2.977 2.977 2.977 2.975 2.975 2.975 2.975 2.975 2.975 2.975 2.975 2.977 2.975 2.975 2.977 2.975 2.975 2.975 2.975 2.975 2.975 2.975 2.975 2.975 2.977 2.977 2.975 2.977 2.975 2.975 2.975 2.977 2.977 2.977 2.975 2.977 2.975 2.975 2.975 2.975 2.975 2.975 2.975 2.975 2.975 2.975 2.975 2.973 2.973 2.975 2.975 2.973 2.975 2.975 2.975 2.975 2.975 2.973 2.973 2.973 2.975 2.975 2.975 2.975 2.973 2.973 2.973 2.973 2.973 2.975 2.973 2.975 2.975 2.975 2.973 2.975 2.975 2.975 2.973 2.973 2.973 2.973 2.973 2.973 2.973 2.973 2.973 2.973 2.973 2.973 2.970 2.973 2.970 2.970 2.973 2.970 2.973 2.970 2.970 2.970 2.970 2.970 2.969 2.969 2.970 2.969 2.969 2.969 2.969 2.969 2.969 2.969 2.969 2.970 2.969 2.969 2.969 2.969 2.969 2.969 2.969 2.969 2.969 2.967 2.969 2.969 2.969 2.967 2.969 2.969 2.969 2.969 2.969 2.967 2.967 2.967 2.967 2.967 2.967 2.967 2.967 2.967 2.967 2.967 2.967 2.967 2.967 2.967 2.967 2.967 2.967 2.967 2.963 2.967 2.967 2.967 2.963 2.963 2.967 2.963 2.963 2.963 2.963 2.967 2.963 2.963 2.963 2.963 2.963 2.963 2.963 2.963 2.963 2.963 2.963 2.963 2.963 2.963 2.963 2.963 2.963 2.963 2.963 2.963 2.963 2.963 2.963 2.963 2.963 2.963 2.963 2.963 2.963 2.963 2.963 2.963 2.963 2.963 2.963 2.963 2.963 2.963 2.960 2.960 2.963 2.963 2.963 2.960 2.960 2.960 2.960 2.960 2.960 2.960 2.960 2.963 2.963 2.960 2.960 2.960 2.960 2.960 2.960 2.960 2.959 2.960 2.960 2.960 2.960 2.960 2.959 2.959 2.959 2.959 2.959 2.959 2.959 2.960 2.959 2.960 2.960 2.960 2.959 2.959 2.959 2.957 2.959 2.959 2.957 2.959 2.959 2.957 2.959 2.957 2.959 2.959 2.957 2.957 2.957 2.957 2.957 2.957 2.957 2.957 2.957 2.957 2.957 2.957 2.957 2.957 2.957 2.957 2.957 2.957 2.957 2.957 2.957 2.957 2.957 2.957 2.957 2.957 2.957 2.957 2.957 2.957 2.957 2.957 2.957 2.957 2.957 2.957 2.957 2.957 2.955 2.955 2.957 2.957 2.957 2.955 2.955 2.953 2.955 2.955 2.955 2.955 2.955 2.955 2.955 2.955 2.955 2.953 2.955 2.955 2.955 2.953 2.953 2.953 2.955 2.953 2.955 2.955 2.955 2.955 2.953 2.955 2.953 2.955 2.953 2.953 2.953 2.953 2.953 2.953 2.953 2.955 2.953 2.953 2.953 2.953 2.953 2.953 2.951 2.953 2.953 2.953 2.953 2.953 2.953 2.953 2.953 2.951 2.951 2.951 2.953 2.953 2.953 2.953 2.953 2.953 2.951 2.953 2.953 2.953 2.953 2.953 2.953 2.953 2.953 2.951 2.953 2.951 2.951 2.953 2.953 2.953 2.951 2.951 2.951 2.953 2.953 2.951 2.951 2.951 2.953 2.951 2.953 2.951 2.951 2.951 2.953 2.953 2.951 2.953 2.953 2.953 2.953 2.953 2.953 2.953 2.953 2.951 2.951 2.951 2.953 2.951 2.951 2.951 2.951 2.951 2.951 2.953 2.953 2.953 2.951 2.951 2.947 2.945 2.943 2.797 2.756 2.742 2.738 2.736 2.736 2.736 2.738 2.740 2.742 2.744 2.748 2.748 2.750 2.750 2.754 2.756 2.760 2.760 2.764 2.766 2.768 2.770 2.770 2.771 2.773 2.773
2.977 2.977 2.977 2.977 2.977 2.977 2.977 2.977 2.977 2.977 2.977 2.977 2.977 2.977 2.977 2.977 2.977 2.977 2.977 2.977 2.975 2.977 2.977 2.975 2.975 2.977 2.977 2.975 2.975 2.977 2.977 2.977 2.977 2.977 2.977 2.977 2.975 2.975 2.975 2.975 2.975 2.975 2.977 2.977 2.977 2.975 2.975 2.975 2.977 2.975 2.975 2.977 2.977 2.975 2.975 2.975 2.975 2.975 2.975 2.975 2.975 2.975 2.977 2.975 2.975 2.973 2.975 2.975 2.975 2.977 2.975 2.975 2.977 2.975 2.975 2.977 2.975 2.975 2.977 2.977 2.975 2.975 2.975 2.975 2.977 2.977 2.975 2.975 2.975 2.975 2.977 2.975 2.975 2.975 2.975 2.975 2.975 2.975 2.975 2.973 2.975 2.975 2.975 2.975 2.975 2.973 2.973 2.973 2.975 2.973 2.975 2.975 2.975 2.975 2.973 2.973 2.973 2.973 2.973 2.973 2.973 2.975 2.973 2.975 2.973 2.975 2.975 2.975 2.975 2.975 2.973 2.973 2.973 2.973 2.973 2.973 2.973 2.973 2.973 2.973 2.970 2.970 2.970 2.970 2.970 2.970 2.970 2.970 2.970 2.970 2.970 2.970 2.970 2.970 2.970 2.970 2.969 2.969 2.969 2.969 2.969 2.969 2.969 2.969 2.969 2.969 2.969 2.967 2.969 2.969 2.969 2.969 2.969 2.969 2.969 2.969 2.969 2.969 2.969 2.969 2.969 2.969 2.969 2.969 2.969 2.969 2.967 2.967 2.967 2.967 2.967 2.967 2.967 2.967 2.967 2.967 2.967 2.967 2.963 2.963 2.963 2.967 2.967 2.963 2.963 2.963 2.963 2.963 2.963 2.963 2.963 2.963 2.963 2.963 2.963 2.963 2.963 2.963 2.963 2.963 2.963 2.963 2.963 2.963 2.963 2.963 2.963 2.963 2.963 2.963 2.963 2.963 2.963 2.963 2.963 2.963 2.963 2.963 2.963 2.963 2.963 2.963 2.960 2.963 2.963 2.963 2.963 2.963 2.963 2.963 2.963 2.963 2.960 2.960 2.963 2.963 2.963 2.960 2.963 2.960 2.963 2.963 2.960 2.960 2.960 2.960 2.960 2.960 2.960 2.959 2.960 2.960 2.960 2.960 2.960 2.960 2.960 2.959 2.960 2.959 2.959 2.959 2.959 2.959 2.959 2.959 2.959 2.959 2.959 2.960 2.960 2.960 2.959 2.959 2.959 2.959 2.959 2.959 2.959 2.959 2.957 2.959 2.959 2.957 2.957 2.957 2.957 2.957 2.959 2.957 2.959 2.959 2.957 2.957 2.957 2.957 2.957 2.957 2.959 2.957 2.959 2.959 2.957 2.957 2.957 2.957 2.957 2.957 2.957 2.957 2.957 2.957 2.957 2.957 2.957 2.955 2.957 2.957 2.955 2.957 2.957 2.957 2.957 2.955 2.957 2.957 2.955 2.957 2.955 2.957 2.955 2.955 2.955 2.955 2.955 2.955 2.955 2.955 2.955 2.955 2.955 2.955 2.955 2.955 2.953 2.955 2.955 2.953 2.955 2.955 2.955 2.953 2.953 2.955 2.955 2.955 2.955 2.953 2.955 2.953 2.955 2.955 2.953 2.953 2.953 2.953 2.953 2.951 2.953 2.953 2.953 2.953 2.953 2.953 2.953 2.953 2.953 2.953 2.951 2.951 2.953 2.953 2.953 2.953 2.953 2.953 2.953 2.953 2.953 2.953 2.951 2.953 2.953 2.953 2.953 2.953 2.953 2.953 2.953 2.951 2.953 2.953 2.951 2.953 2.951 2.951 2.953 2.953 2.953 2.953 2.951 2.951 2.953 2.953 2.953 2.953 2.953 2.953 2.953 2.953 2.951 2.951 2.951 2.951 2.951 2.953 2.953 2.953 2.953 2.953 2.951 2.951 2.953 2.951 2.953 2.951 2.951 2.951 2.951 2.951 2.951 2.951 2.953 2.953 2.953 2.951 2.951 2.947 2.947 2.943 2.795 2.754 2.742 2.740 2.736 2.736 2.736 2.738 2.740 2.744 2.744 2.748 2.748 2.750 2.750 2.754 2.756 2.758 2.762 2.764 2.766 2.768 2.770 2.770 2.771 2.773 2.773
2.977 2.977 2.979 2.979 2.977 2.977 2.975 2.977 2.977 2.977 2.975 2.977 2.977 2.977 2.977 2.977 2.977 2.977 2.977 2.977 2.977 2.977 2.977 2.977 2.975 2.975 2.977 2.977 2.977 2.977 2.977 2.977 2.975 2.977 2.977 2.977 2.977 2.977 2.977 2.975 2.977 2.977 2.977 2.977 2.977 2.977 2.975 2.975 2.975 2.975 2.975 2.975 2.975 2.977 2.975 2.975 2.977 2.975 2.975 2.975 2.975 2.977 2.975 2.975 2.977 2.977 2.977 2.975 2.975 2.977 2.975 2.977 2.975 2.975 2.975 2.975 2.975 2.975 2.975 2.977 2.977 2.975 2.975 2.975 2.975 2.975 2.977 2.975 2.975 2.975 2.975 2.975 2.975 2.975 2.975 2.975 2.973 2.975 2.975 2.975 2.973 2.975 2.975 2.975 2.975 2.975 2.975 2.975 2.973 2.975 2.973 2.975 2.975 2.975 2.975 2.975 2.973 2.973 2.973 2.973 2.973 2.975 2.973 2.973 2.973 2.973 2.973 2.975 2.973 2.973 2.975 2.975 2.973 2.973 2.973 2.973 2.973 2.973 2.973 2.973 2.970 2.970 2.970 2.970 2.970 2.973 2.970 2.973 2.973 2.970 2.970 2.970 2.970 2.970 2.970 2.969 2.970 2.969 2.969 2.969 2.969 2.969 2.969 2.969 2.969 2.969 2.969 2.969 2.969 2.969 2.969 2.969 2.969 2.969 2.969 2.969 2.969 2.969 2.969 2.969 2.969 2.969 2.969 2.969 2.967 2.969 2.967 2.967 2.967 2.967 2.967 2.967 2.967 2.967 2.967 2.967 2.967 2.963 2.963 2.967 2.967 2.967 2.967 2.963 2.963 2.963 2.963 2.963 2.963 2.963 2.967 2.963 2.967 2.963 2.963 2.963 2.963 2.963 2.963 2.963 2.963 2.963 2.963 2.963 2.963 2.963 2.963 2.963 2.963 2.963 2.963 2.963 2.963 2.963 2.963 2.963 2.963 2.963 2.963 2.963 2.963 2.960 2.963 2.963 2.963 2.963 2.963 2.963 2.963 2.963 2.963 2.963 2.963 2.963 2.963 2.963 2.963 2.963 2.960 2.960 2.960 2.960 2.960 2.960 2.960 2.960 2.960 2.960 2.960 2.960 2.960 2.960 2.960 2.960 2.960 2.960 2.960 2.960 2.960 2.960 2.963 2.960 2.959 2.959 2.959 2.959 2.960 2.959 2.959 2.959 2.959 2.959 2.959 2.959 2.959 2.959 2.959 2.959 2.959 2.959 2.959 2.959 2.959 2.957 2.957 2.959 2.957 2.959 2.957 2.959 2.957 2.957 2.957 2.957 2.957 2.957 2.957 2.957 2.957 2.957 2.957 2.957 2.957 2.957 2.957 2.957 2.957 2.957 2.957 2.957 2.957 2.957 2.957 2.957 2.957 2.955 2.955 2.957 2.955 2.957 2.957 2.957 2.957 2.955 2.955 2.957 2.955 2.955 2.957 2.957 2.955 2.957 2.957 2.957 2.955 2.955 2.955 2.955 2.955 2.955 2.955 2.957 2.955 2.955 2.953 2.953 2.955 2.955 2.955 2.955 2.953 2.955 2.955 2.955 2.955 2.953 2.953 2.953 2.953 2.953 2.953 2.953 2.953 2.953 2.953 2.953 2.953 2.953 2.953 2.953 2.953 2.953 2.953 2.953 2.953 2.951 2.953 2.953 2.953 2.953 2.953 2.953 2.953 2.953 2.953 2.953 2.953 2.953 2.953 2.953 2.953 2.953 2.953 2.953 2.953 2.953 2.953 2.953 2.953 2.953 2.951 2.951 2.953 2.953 2.951 2.951 2.953 2.951 2.951 2.951 2.951 2.953 2.953 2.951 2.951 2.953 2.953 2.953 2.953 2.953 2.953 2.951 2.953 2.953 2.953 2.951 2.951 2.951 2.951 2.951 2.953 2.953 2.951 2.953 2.953 2.951 2.951 2.951 2.951 2.951 2.951 2.951 2.953 2.953 2.953 2.951 2.953 2.950 2.947 2.943 2.791 2.754 2.742 2.738 2.736 2.736 2.736 2.738 2.740 2.744 2.744 2.746 2.748 2.750 2.752 2.754 2.756 2.760 2.762 2.764 2.766 2.770 2.770 2.770 2.771 2.773 2.773
2.977 2.977 2.977 2.977 2.977 2.977 2.977 2.977 2.975 2.975 2.977 2.977 2.977 2.977 2.975 2.975 2.975 2.977 2.977 2.977 2.977 2.977 2.977 2.975 2.977 2.977 2.977 2.975 2.975 2.977 2.977 2.977 2.977 2.977 2.975 2.977 2.977 2.977 2.977 2.977 2.977 2.977 2.975 2.975 2.977 2.975 2.975 2.975 2.977 2.977 2.977 2.975 2.977 2.977 2.977 2.977 2.977 2.975 2.975 2.975 2.975 2.975 2.975 2.975 2.977 2.975 2.975 2.975 2.975 2.975 2.975 2.975 2.975 2.975 2.975 2.975 2.975 2.975 2.975 2.975 2.977 2.975 2.975 2.975 2.975 2.975 2.975 2.975 2.975 2.975 2.975 2.977 2.975 2.975 2.975 2.975 2.975 2.975 2.975 2.975 2.973 2.973 2.975 2.975 2.973 2.973 2.975 2.973 2.973 2.973 2.973 2.973 2.973 2.975 2.975 2.973 2.973 2.973 2.975 2.973 2.973 2.973 2.973 2.973 2.973 2.973 2.973 2.975 2.975 2.975 2.973 2.973 2.973 2.973 2.973 2.970 2.970 2.973 2.973 2.973 2.973 2.970 2.970 2.970 2.970 2.973 2.970 2.970 2.970 2.970 2.970 2.970 2.970 2.970 2.970 2.970 2.970 2.970 2.970 2.969 2.969 2.969 2.969 2.969 2.969 2.970 2.969 2.969 2.969 2.969 2.969 2.967 2.969 2.969 2.969 2.969 2.969 2.969 2.969 2.969 2.969 2.969 2.969 2.967 2.969 2.969 2.967 2.967 2.967 2.967 2.967 2.967 2.967 2.967 2.969 2.967 2.969 2.967 2.967 2.967 2.963 2.963 2.967 2.967 2.967 2.967 2.963 2.963 2.963 2.963 2.963 2.963 2.963 2.963 2.963 2.963 2.963 2.963 2.963 2.963 2.963 2.963 2.963 2.963 2.963 2.963 2.963 2.963 2.963 2.963 2.963 2.963 2.963 2.963 2.963 2.963 2.963 2.963 2.963 2.963 2.963 2.960 2.963 2.960 2.963 2.963 2.963 2.963 2.963 2.963 2.963 2.963 2.960 2.963 2.963 2.960 2.960 2.960 2.960 2.960 2.960 2.960 2.960 2.960 2.960 2.960 2.960 2.960 2.960 2.959 2.960 2.959 2.960 2.959 2.960 2.960 2.959 2.960 2.960 2.960 2.960 2.960 2.959 2.959 2.959 2.959 2.959 2.959 2.959 2.959 2.959 2.960 2.959 2.959 2.959 2.959 2.957 2.959 2.957 2.959 2.959 2.957 2.959 2.959 2.957 2.957 2.957 2.957 2.959 2.957 2.957 2.957 2.957 2.957 2.957 2.957 2.957 2.957 2.957 2.957 2.957 2.957 2.957 2.957 2.957 2.957 2.957 2.957 2.957 2.957 2.957 2.957 2.957 2.957 2.957 2.955 2.957 2.957 2.957 2.957 2.957 2.957 2.957 2.955 2.957 2.957 2.955 2.955 2.955 2.957 2.955 2.955 2.955 2.955 2.955 2.955 2.955 2.955 2.955 2.955 2.955 2.955 2.953 2.953 2.953 2.955 2.955 2.953 2.955 2.953 2.955 2.955 2.955 2.955 2.955 2.955 2.955 2.953 2.955 2.953 2.955 2.953 2.953 2.953 2.953 2.953 2.953 2.953 2.953 2.951 2.951 2.951 2.951 2.951 2.951 2.951 2.953 2.951 2.951 2.953 2.953 2.953 2.951 2.953 2.953 2.951 2.953 2.951 2.951 2.951 2.953 2.953 2.953 2.953 2.953 2.953 2.953 2.953 2.953 2.951 2.951 2.953 2.951 2.953 2.951 2.953 2.951 2.951 2.951 2.953 2.951 2.951 2.951 2.953 2.953 2.953 2.953 2.951 2.953 2.953 2.953 2.951 2.953 2.953 2.951 2.953 2.953 2.951 2.951 2.953 2.953 2.953 2.953 2.951 2.951 2.951 2.951 2.951 2.951 2.951 2.951 2.953 2.953 2.951 2.951 2.951 2.951 2.947 2.947 2.945 2.790 2.754 2.740 2.738 2.736 2.736 2.736 2.738 2.738 2.742 2.744 2.746 2.748 2.750 2.752 2.754 2.756 2.758 2.762 2.764 2.766 2.768 2.770 2.770 2.771 2.773 2.773
2.977 2.977 2.977 2.979 2.977 2.977 2.975 2.975 2.975 2.977 2.975 2.975 2.975 2.977 2.977 2.977 2.977 2.977 2.977 2.977 2.977 2.977 2.977 2.977 2.977 2.977 2.975 2.977 2.977 2.977 2.977 2.977 2.977 2.975 2.975 2.977 2.975 2.977 2.977 2.977 2.975 2.975 2.977 2.977 2.975 2.975 2.975 2.975 2.975 2.975 2.975 2.975 2.975 2.977 2.977 2.977 2.977 2.975 2.975 2.975 2.975 2.975 2.975 2.975 2.977 2.975 2.975 2.975 2.975 2.975 2.975 2.975 2.975 2.975 2.975 2.977 2.975 2.977 2.975 2.975 2.977 2.975 2.975 2.975 2.977 2.975 2.975 2.975 2.977 2.977 2.975 2.975 2.975 2.975 2.975 2.975 2.975 2.975 2.975 2.975 2.975 2.973 2.975 2.973 2.973 2.975 2.975 2.973 2.973 2.973 2.973 2.975 2.973 2.973 2.973 2.975 2.975 2.975 2.973 2.973 2.973 2.973 2.973 2.973 2.973 2.973 2.973 2.973 2.973 2.973 2.973 2.973 2.973 2.973 2.973 2.973 2.970 2.973 2.970 2.973 2.973 2.973 2.970 2.973 2.970 2.970 2.970 2.970 2.970 2.970 2.970 2.970 2.969 2.970 2.970 2.970 2.970 2.970 2.970 2.970 2.969 2.969 2.969 2.969 2.969 2.969 2.969 2.969 2.969 2.967 2.967 2.967 2.969 2.967 2.969 2.969 2.969 2.967 2.969 2.969 2.967 2.969 2.967 2.967 2.967 2.967 2.967 2.967 2.967 2.967 2.967 2.967 2.967 2.967 2.967 2.967 2.967 2.967 2.967 2.963 2.967 2.967 2.963 2.967 2.967 2.967 2.963 2.963 2.963 2.963 2.967 2.963 2.967 2.963 2.963 2.963 2.963 2.963 2.963 2.963 2.963 2.963 2.963 2.963 2.963 2.963 2.963 2.963 2.963 2.963 2.963 2.963 2.963 2.963 2.963 2.963 2.963 2.963 2.963 2.963 2.963 2.963 2.963 2.963 2.963 2.960 2.963 2.963 2.963 2.963 2.963 2.963 2.963 2.960 2.960 2.960 2.963 2.960 2.963 2.963 2.963 2.963 2.963 2.960 2.960 2.963 2.963 2.960 2.960 2.960 2.960 2.960 2.960 2.963 2.960 2.960 2.960 2.960 2.960 2.960 2.960 2.959 2.959 2.959 2.959 2.959 2.959 2.959 2.959 2.959 2.959 2.959 2.959 2.959 2.959 2.959 2.959 2.959 2.959 2.959 2.959 2.959 2.957 2.959 2.957 2.957 2.957 2.957 2.957 2.957 2.957 2.957 2.959 2.957 2.959 2.957 2.957 2.957 2.957 2.957 2.957 2.957 2.957 2.959 2.957 2.957 2.957 2.957 2.957 2.957 2.957 2.957 2.957 2.957 2.957 2.957 2.957 2.957 2.957 2.957 2.957 2.957 2.957 2.955 2.955 2.955 2.957 2.957 2.955 2.955 2.955 2.955 2.955 2.955 2.955 2.955 2.955 2.955 2.953 2.955 2.953 2.953 2.955 2.955 2.953 2.955 2.955 2.955 2.955 2.955 2.955 2.955 2.955 2.955 2.955 2.955 2.953 2.953 2.953 2.953 2.953 2.953 2.953 2.953 2.953 2.953 2.953 2.953 2.953 2.953 2.955 2.953 2.953 2.953 2.951 2.953 2.951 2.953 2.953 2.953 2.953 2.953 2.953 2.953 2.953 2.953 2.951 2.953 2.953 2.953 2.953 2.953 2.953 2.953 2.953 2.953 2.953 2.953 2.951 2.953 2.953 2.953 2.951 2.953 2.953 2.953 2.951 2.953 2.953 2.953 2.951 2.953 2.951 2.953 2.953 2.953 2.951 2.951 2.953 2.953 2.953 2.953 2.951 2.953 2.953 2.953 2.951 2.953 2.953 2.953 2.951 2.951 2.951 2.951 2.953 2.951 2.951 2.951 2.950 2.950 2.951 2.951 2.953 2.951 2.951 2.951 2.953 2.947 2.947 2.943 2.787 2.752 2.740 2.738 2.738 2.736 2.736 2.738 2.740 2.742 2.744 2.746 2.748 2.748 2.750 2.754 2.756 2.758 2.760 2.764 2.766 2.768 2.770 2.771 2.771 2.773 2.773
2.977 2.977 2.977 2.977 2.977 2.975 2.975 2.975 2.977 2.975 2.975 2.977 2.975 2.977 2.977 2.977 2.975 2.977 2.977 2.977 2.977 2.977 2.977 2.975 2.975 2.977 2.977 2.975 2.977 2.977 2.977 2.977 2.977 2.975 2.977 2.975 2.975 2.977 2.975 2.975 2.975 2.975 2.975 2.975 2.975 2.975 2.975 2.975 2.977 2.975 2.977 2.975 2.975 2.977 2.975 2.977 2.975 2.975 2.975 2.975 2.975 2.975 2.975 2.977 2.975 2.977 2.977 2.975 2.975 2.975 2.975 2.977 2.975 2.975 2.977 2.977 2.975 2.975 2.975 2.977 2.977 2.977 2.975 2.975 2.975 2.975 2.975 2.975 2.975 2.975 2.975 2.975 2.977 2.977 2.975 2.975 2.975 2.975 2.975 2.973 2.973 2.973 2.975 2.973 2.973 2.975 2.973 2.973 2.973 2.973 2.973 2.973 2.973 2.973 2.973 2.973 2.975 2.973 2.973 2.973 2.973 2.973 2.973 2.973 2.973 2.973 2.973 2.973 2.973 2.973 2.973 2.973 2.973 2.973 2.973 2.973 2.973 2.970 2.970 2.973 2.973 2.970 2.970 2.970 2.970 2.970 2.970 2.970 2.970 2.970 2.970 2.970 2.970 2.970 2.970 2.970 2.970 2.970 2.970 2.969 2.969 2.969 2.969 2.969 2.969 2.969 2.969 2.969 2.969 2.969 2.969 2.969 2.969 2.969 2.967 2.967 2.967 2.969 2.969 2.969 2.969 2.969 2.969 2.967 2.967 2.967 2.969 2.967 2.967 2.967 2.963 2.967 2.967 2.967 2.967 2.967 2.967 2.963 2.967 2.967 2.967 2.967 2.967 2.963 2.967 2.967 2.967 2.967 2.967 2.967 2.967 2.963 2.967 2.963 2.963 2.963 2.963 2.963 2.963 2.963 2.963 2.963 2.963 2.963 2.963 2.963 2.963 2.963 2.963 2.963 2.963 2.963 2.963 2.963 2.963 2.963 2.963 2.963 2.963 2.963 2.963 2.960 2.963 2.963 2.963 2.963 2.963 2.963 2.963 2.963 2.963 2.963 2.963 2.960 2.960 2.963 2.963 2.963 2.963 2.963 2.960 2.960 2.960 2.963 2.960 2.963 2.960 2.960 2.960 2.960 2.960 2.960 2.960 2.960 2.960 2.960 2.960 2.960 2.960 2.960 2.959 2.959 2.963 2.960 2.960 2.959 2.959 2.959 2.959 2.959 2.959 2.959 2.959 2.959 2.959 2.960 2.959 2.959 2.959 2.959 2.957 2.959 2.959 2.959 2.959 2.959 2.957 2.957 2.957 2.959 2.957 2.957 2.957 2.957 2.957 2.957 2.957 2.957 2.957 2.957 2.957 2.957 2.957 2.957 2.957 2.957 2.957 2.957 2.957 2.955 2.957 2.957 2.957 2.957 2.957 2.957 2.957 2.955 2.955 2.957 2.955 2.957 2.957 2.955 2.957 2.957 2.955 2.957 2.957 2.955 2.955 2.955 2.957 2.955 2.955 2.955 2.955 2.955 2.955 2.955 2.955 2.955 2.955 2.955 2.953 2.955 2.953 2.953 2.953 2.953 2.953 2.955 2.955 2.953 2.953 2.953 2.953 2.953 2.953 2.953 2.953 2.953 2.953 2.953 2.953 2.953 2.953 2.953 2.953 2.953 2.953 2.953 2.953 2.953 2.953 2.953 2.953 2.953 2.953 2.953 2.953 2.953 2.951 2.951 2.953 2.953 2.953 2.953 2.953 2.951 2.951 2.953 2.953 2.953 2.953 2.953 2.953 2.953 2.951 2.951 2.953 2.953 2.951 2.953 2.953 2.953 2.953 2.953 2.951 2.953 2.953 2.953 2.951 2.951 2.953 2.953 2.953 2.951 2.951 2.953 2.951 2.951 2.953 2.953 2.953 2.953 2.953 2.953 2.953 2.953 2.951 2.953 2.953 2.951 2.951 2.951 2.951 2.951 2.951 2.951 2.951 2.951 2.953 2.951 2.953 2.951 2.953 2.945 2.947 2.945 2.783 2.752 2.740 2.738 2.736 2.734 2.736 2.738 2.740 2.742 2.744 2.746 2.748 2.750 2.750 2.754 2.756 2.758 2.762 2.764 2.768 2.768 2.770 2.770 2.771 2.773 2.773
2.977 2.977 2.975 2.977 2.977 2.977 2.977 2.977 2.975 2.977 2.977 2.977 2.975 2.975 2.975 2.975 2.975 2.975 2.977 2.977 2.977 2.977 2.977 2.977 2.975 2.977 2.975 2.975 2.975 2.977 2.977 2.977 2.975 2.977 2.975 2.977 2.977 2.977 2.977 2.977 2.977 2.975 2.975 2.975 2.975 2.977 2.975 2.977 2.975 2.975 2.975 2.975 2.975 2.975 2.975 2.975 2.975 2.977 2.975 2.975 2.975 2.975 2.975 2.975 2.975 2.975 2.975 2.975 2.975 2.977 2.975 2.975 2.975 2.977 2.975 2.975 2.975 2.975 2.975 2.977 2.975 2.973 2.975 2.975 2.975 2.975 2.975 2.975 2.977 2.977 2.977 2.975 2.975 2.975 2.975 2.975 2.975 2.975 2.973 2.975 2.975 2.975 2.975 2.975 2.973 2.973 2.973 2.973 2.973 2.973 2.973 2.973 2.973 2.973 2.975 2.973 2.973 2.973 2.975 2.973 2.973 2.973 2.973 2.973 2.973 2.973 2.973 2.973 2.973 2.973 2.973 2.970 2.973 2.970 2.970 2.973 2.973 2.973 2.970 2.970 2.970 2.970 2.970 2.970 2.970 2.970 2.970 2.970 2.970 2.970 2.970 2.970 2.970 2.970 2.970 2.970 2.970 2.970 2.969 2.969 2.969 2.969 2.969 2.969 2.969 2.969 2.969 2.969 2.969 2.969 2.967 2.967 2.967 2.967 2.967 2.967 2.967 2.969 2.969 2.969 2.967 2.967 2.969 2.969 2.967 2.967 2.967 2.963 2.967 2.967 2.963 2.967 2.967 2.967 2.967 2.967 2.967 2.967 2.967 2.967 2.967 2.967 2.963 2.967 2.967 2.967 2.967 2.967 2.967 2.967 2.963 2.963 2.967 2.963 2.963 2.963 2.963 2.963 2.963 2.963 2.963 2.963 2.963 2.963 2.963 2.963 2.963 2.963 2.963 2.963 2.963 2.963 2.963 2.963 2.963 2.963 2.963 2.963 2.960 2.963 2.960 2.963 2.963 2.963 2.963 2.963 2.963 2.963 2.963 2.963 2.963 2.963 2.963 2.963 2.963 2.963 2.963 2.963 2.963 2.960 2.960 2.960 2.960 2.960 2.960 2.960 2.960 2.960 2.960 2.960 2.960 2.960 2.960 2.960 2.960 2.960 2.960 2.960 2.960 2.960 2.959 2.960 2.960 2.960 2.959 2.959 2.959 2.959 2.959 2.960 2.959 2.959 2.959 2.959 2.959 2.959 2.959 2.959 2.959 2.959 2.957 2.959 2.959 2.959 2.959 2.959 2.957 2.957 2.957 2.957 2.957 2.957 2.957 2.957 2.957 2.959 2.957 2.957 2.957 2.957 2.957 2.957 2.957 2.957 2.957 2.957 2.957 2.957 2.957 2.957 2.957 2.957 2.957 2.957 2.957 2.957 2.957 2.957 2.955 2.957 2.957 2.957 2.955 2.957 2.957 2.957 2.955 2.957 2.955 2.955 2.955 2.957 2.955 2.955 2.955 2.955 2.955 2.955 2.955 2.955 2.955 2.955 2.955 2.953 2.953 2.955 2.955 2.955 2.955 2.953 2.953 2.955 2.953 2.955 2.953 2.953 2.953 2.953 2.953 2.953 2.953 2.953 2.953 2.953 2.953 2.953 2.953 2.953 2.953 2.953 2.953 2.953 2.953 2.955 2.953 2.953 2.951 2.953 2.951 2.953 2.953 2.953 2.953 2.953 2.953 2.951 2.953 2.953 2.953 2.953 2.951 2.953 2.953 2.953 2.953 2.953 2.953 2.953 2.953 2.951 2.951 2.953 2.953 2.953 2.953 2.951 2.951 2.951 2.953 2.953 2.951 2.953 2.953 2.953 2.953 2.953 2.951 2.953 2.951 2.951 2.951 2.951 2.953 2.953 2.951 2.953 2.953 2.953 2.953 2.953 2.953 2.953 2.951 2.951 2.953 2.953 2.951 2.951 2.951 2.951 2.953 2.951 2.953 2.951 2.953 2.951 2.953 2.947 2.947 2.943 2.780 2.752 2.740 2.740 2.736 2.736 2.736 2.738 2.740 2.742 2.744 2.746 2.746 2.748 2.750 2.754 2.756 2.760 2.762 2.764 2.766 2.768 2.770 2.770 2.771 2.773 2.773
2.977 2.977 2.977 2.977 2.977 2.977 2.977 2.975 2.977 2.975 2.975 2.975 2.975 2.975 2.977 2.977 2.977 2.977 2.977 2.977 2.977 2.975 2.977 2.975 2.975 2.977 2.977 2.975 2.975 2.975 2.977 2.977 2.977 2.977 2.975 2.977 2.975 2.975 2.975 2.975 2.975 2.975 2.975 2.975 2.975 2.975 2.975 2.975 2.975 2.975 2.975 2.975 2.975 2.975 2.975 2.975 2.975 2.977 2.977 2.975 2.975 2.975 2.975 2.975 2.975 2.975 2.975 2.975 2.975 2.975 2.975 2.975 2.975 2.975 2.975 2.975 2.975 2.975 2.975 2.975 2.975 2.975 2.975 2.975 2.975 2.975 2.977 2.977 2.975 2.975 2.975 2.975 2.975 2.975 2.975 2.975 2.973 2.973 2.975 2.975 2.975 2.973 2.975 2.973 2.973 2.975 2.973 2.973 2.975 2.975 2.973 2.973 2.973 2.973 2.975 2.973 2.973 2.973 2.973 2.973 2.973 2.973 2.973 2.973 2.973 2.973 2.973 2.973 2.973 2.973 2.973 2.975 2.973 2.973 2.970 2.970 2.970 2.970 2.970 2.970 2.970 2.970 2.970 2.970 2.970 2.970 2.970 2.970 2.970 2.970 2.970 2.969 2.970 2.970 2.970 2.970 2.970 2.970 2.970 2.969 2.969 2.969 2.969 2.969 2.969 2.969 2.969 2.967 2.969 2.969 2.967 2.967 2.969 2.967 2.967 2.967 2.967 2.969 2.967 2.967 2.969 2.969 2.967 2.967 2.967 2.967 2.967 2.963 2.967 2.963 2.963 2.967 2.967 2.967 2.967 2.967 2.967 2.967 2.967 2.967 2.967 2.963 2.967 2.967 2.967 2.963 2.963 2.963 2.963 2.963 2.963 2.963 2.963 2.963 2.963 2.963 2.963 2.963 2.963 2.963 2.963 2.963 2.963 2.963 2.963 2.963 2.963 2.963 2.963 2.963 2.963 2.963 2.963 2.963 2.963 2.963 2.963 2.963 2.963 2.963 2.963 2.963 2.963 2.963 2.963 2.963 2.963 2.963 2.963 2.960 2.960 2.963 2.963 2.963 2.963 2.960 2.963 2.963 2.963 2.960 2.960 2.960 2.960 2.960 2.960 2.960 2.960 2.960 2.960 2.960 2.960 2.960 2.960 2.960 2.960 2.960 2.960 2.960 2.960 2.960 2.960 2.959 2.959 2.959 2.960 2.959 2.960 2.959 2.960 2.959 2.959 2.959 2.959 2.959 2.959 2.959 2.957 2.957 2.959 2.959 2.959 2.959 2.959 2.959 2.957 2.957 2.957 2.957 2.957 2.957 2.957 2.957 2.957 2.957 2.957 2.957 2.957 2.957 2.957 2.957 2.957 2.957 2.957 2.957 2.957 2.957 2.957 2.957 2.957 2.957 2.955 2.957 2.957 2.957 2.957 2.957 2.957 2.957 2.955 2.957 2.955 2.955 2.957 2.957 2.957 2.955 2.955 2.957 2.957 2.955 2.955 2.957 2.955 2.955 2.955 2.955 2.955 2.953 2.955 2.955 2.955 2.955 2.955 2.955 2.955 2.955 2.953 2.955 2.953 2.953 2.953 2.955 2.955 2.953 2.953 2.953 2.953 2.953 2.953 2.953 2.953 2.953 2.953 2.953 2.953 2.953 2.953 2.953 2.953 2.953 2.953 2.953 2.953 2.953 2.951 2.953 2.953 2.953 2.951 2.953 2.953 2.953 2.953 2.953 2.953 2.953 2.953 2.951 2.953 2.951 2.953 2.953 2.953 2.953 2.953 2.953 2.953 2.953 2.953 2.953 2.953 2.953 2.953 2.953 2.953 2.951 2.951 2.953 2.953 2.953 2.953 2.953 2.953 2.953 2.953 2.953 2.951 2.953 2.951 2.953 2.953 2.951 2.951 2.951 2.951 2.953 2.953 2.953 2.953 2.953 2.953 2.953 2.951 2.951 2.953 2.953 2.951 2.951 2.951 2.951 2.953 2.953 2.953 2.951 2.953 2.951 2.953 2.945 2.947 2.943 2.777 2.752 2.740 2.736 2.736 2.736 2.738 2.738 2.740 2.742 2.744 2.746 2.748 2.748 2.750 2.752 2.756 2.758 2.760 2.762 2.766 2.768 2.770 2.771 2.771 2.773 2.773
2.977 2.977 2.977 2.975 2.975 2.977 2.977 2.977 2.975 2.975 2.975 2.975 2.975 2.975 2.977 2.977 2.975 2.977 2.977 2.975 2.975 2.975 2.977 2.977 2.977 2.977 2.975 2.975 2.973 2.975 2.975 2.975 2.975 2.977 2.975 2.975 2.975 2.977 2.975 2.977 2.975 2.977 2.975 2.975 2.975 2.975 2.975 2.975 2.975 2.975 2.975 2.975 2.975 2.975 2.975 2.975 2.975 2.975 2.977 2.977 2.977 2.975 2.975 2.975 2.975 2.975 2.975 2.975 2.975 2.975 2.977 2.977 2.975 2.975 2.975 2.975 2.977 2.975 2.975 2.977 2.975 2.975 2.977 2.975 2.975 2.975 2.977 2.975 2.975 2.975 2.975 2.973 2.975 2.975 2.975 2.975 2.975 2.973 2.973 2.975 2.975 2.975 2.975 2.975 2.973 2.973 2.973 2.975 2.975 2.973 2.973 2.973 2.973 2.973 2.975 2.975 2.975 2.973 2.975 2.975 2.973 2.973 2.973 2.973 2.973 2.973 2.973 2.973 2.973 2.973 2.973 2.973 2.975 2.973 2.970 2.970 2.970 2.973 2.970 2.973 2.970 2.970 2.970 2.973 2.970 2.973 2.970 2.970 2.970 2.970 2.970 2.970 2.970 2.970 2.970 2.970 2.969 2.969 2.969 2.969 2.969 2.970 2.969 2.969 2.969 2.969 2.969 2.969 2.969 2.969 2.967 2.969 2.967 2.967 2.967 2.969 2.969 2.969 2.967 2.967 2.967 2.967 2.967 2.967 2.967 2.967 2.967 2.967 2.963 2.963 2.963 2.963 2.967 2.967 2.967 2.967 2.967 2.967 2.967 2.967 2.963 2.967 2.967 2.967 2.963 2.967 2.967 2.967 2.967 2.967 2.963 2.963 2.963 2.963 2.963 2.963 2.963 2.963 2.963 2.963 2.963 2.963 2.963 2.963 2.963 2.963 2.963 2.963 2.963 2.963 2.963 2.963 2.963 2.963 2.963 2.963 2.963 2.963 2.963 2.963 2.963 2.963 2.963 2.963 2.963 2.963 2.963 2.963 2.963 2.963 2.960 2.960 2.963 2.963 2.963 2.963 2.963 2.963 2.963 2.963 2.963 2.963 2.963 2.960 2.960 2.963 2.960 2.960 2.960 2.960 2.960 2.960 2.960 2.960 2.960 2.960 2.960 2.960 2.960 2.960 2.960 2.960 2.960 2.960 2.960 2.960 2.959 2.959 2.959 2.959 2.959 2.959 2.959 2.959 2.959 2.957 2.959 2.959 2.959 2.959 2.959 2.957 2.957 2.957 2.959 2.959 2.959 2.959 2.959 2.959 2.957 2.957 2.957 2.959 2.957 2.957 2.957 2.957 2.957 2.957 2.957 2.957 2.957 2.957 2.957 2.957 2.957 2.957 2.957 2.955 2.957 2.957 2.957 2.957 2.955 2.957 2.957 2.957 2.955 2.957 2.957 2.957 2.957 2.957 2.957 2.957 2.957 2.955 2.955 2.955 2.955 2.955 2.955 2.955 2.955 2.955 2.955 2.955 2.953 2.955 2.955 2.955 2.955 2.955 2.955 2.953 2.953 2.953 2.955 2.953 2.953 2.953 2.953 2.953 2.953 2.953 2.953 2.953 2.953 2.953 2.953 2.953 2.953 2.953 2.953 2.953 2.953 2.953 2.953 2.953 2.953 2.953 2.953 2.953 2.953 2.953 2.953 2.953 2.951 2.953 2.953 2.953 2.953 2.953 2.953 2.953 2.951 2.953 2.953 2.953 2.953 2.953 2.953 2.953 2.953 2.953 2.951 2.951 2.953 2.953 2.951 2.953 2.951 2.953 2.953 2.953 2.951 2.951 2.951 2.953 2.951 2.951 2.953 2.953 2.951 2.953 2.951 2.953 2.951 2.953 2.951 2.953 2.953 2.953 2.953 2.951 2.951 2.953 2.953 2.953 2.953 2.953 2.953 2.951 2.951 2.953 2.953 2.951 2.953 2.951 2.953 2.951 2.953 2.951 2.951 2.951 2.951 2.945 2.950 2.943 2.775 2.750 2.740 2.740 2.736 2.736 2.736 2.738 2.738 2.744 2.744 2.746 2.748 2.748 2.750 2.752 2.754 2.758 2.762 2.764 2.766 2.766 2.770 2.770 2.771 2.773 2.773
2.977 2.977 2.977 2.977 2.975 2.975 2.977 2.975 2.975 2.975 2.975 2.975 2.975 2.977 2.977 2.975 2.977 2.977 2.975 2.975 2.977 2.975 2.975 2.977 2.975 2.975 2.975 2.975 2.975 2.975 2.975 2.977 2.975 2.975 2.975 2.975 2.975 2.975 2.975 2.977 2.977 2.975 2.975 2.975 2.975 2.977 2.975 2.975 2.975 2.975 2.975 2.975 2.977 2.977 2.977 2.977 2.975 2.975 2.975 2.975 2.975 2.977 2.977 2.975 2.975 2.977 2.975 2.975 2.975 2.975 2.975 2.975 2.975 2.977 2.975 2.975 2.975 2.975 2.975 2.975 2.977 2.975 2.975 2.975 2.975 2.975 2.975 2.973 2.975 2.975 2.975 2.973 2.975 2.975 2.975 2.975 2.975 2.975 2.975 2.973 2.975 2.975 2.975 2.975 2.975 2.975 2.975 2.973 2.973 2.973 2.975 2.973 2.973 2.973 2.973 2.973 2.973 2.970 2.973 2.973 2.975 2.975 2.973 2.973 2.973 2.973 2.973 2.973 2.973 2.973 2.973 2.973 2.970 2.973 2.970 2.970 2.970 2.970 2.970 2.970 2.970 2.970 2.970 2.970 2.970 2.970 2.970 2.970 2.970 2.970 2.970 2.970 2.970 2.970 2.969 2.969 2.969 2.969 2.970 2.969 2.969 2.969 2.969 2.969 2.969 2.969 2.967 2.969 2.969 2.969 2.969 2.969 2.969 2.969 2.967 2.967 2.967 2.967 2.967 2.967 2.967 2.967 2.967 2.969 2.967 2.963 2.967 2.967 2.967 2.967 2.967 2.967 2.967 2.963 2.963 2.967 2.967 2.967 2.963 2.963 2.967 2.967 2.967 2.967 2.967 2.967 2.967 2.967 2.967 2.963 2.963 2.963 2.963 2.963 2.963 2.963 2.963 2.963 2.963 2.963 2.963 2.963 2.963 2.963 2.963 2.963 2.963 2.963 2.963 2.963 2.963 2.963 2.963 2.963 2.963 2.963 2.963 2.963 2.963 2.963 2.963 2.963 2.963 2.963 2.963 2.963 2.963 2.963 2.963 2.960 2.960 2.960 2.963 2.963 2.963 2.963 2.963 2.960 2.963 2.960 2.963 2.963 2.963 2.960 2.960 2.960 2.960 2.960 2.960 2.960 2.960 2.960 2.959 2.960 2.960 2.959 2.960 2.959 2.959 2.959 2.960 2.960 2.960 2.960 2.960 2.959 2.959 2.959 2.959 2.959 2.959 2.959 2.959 2.959 2.959 2.959 2.959 2.959 2.959 2.959 2.959 2.959 2.957 2.959 2.959 2.959 2.957 2.957 2.957 2.957 2.959 2.957 2.959 2.957 2.957 2.957 2.957 2.957 2.957 2.957 2.957 2.957 2.957 2.957 2.957 2.957 2.957 2.957 2.957 2.957 2.957 2.957 2.957 2.957 2.957 2.957 2.955 2.957 2.955 2.957 2.957 2.957 2.955 2.955 2.955 2.957 2.957 2.955 2.957 2.955 2.955 2.955 2.955 2.955 2.955 2.955 2.955 2.953 2.955 2.955 2.953 2.955 2.955 2.955 2.953 2.955 2.955 2.955 2.953 2.953 2.953 2.955 2.955 2.955 2.955 2.955 2.953 2.953 2.953 2.953 2.953 2.953 2.953 2.953 2.953 2.953 2.953 2.953 2.953 2.953 2.953 2.953 2.953 2.953 2.953 2.951 2.951 2.951 2.953 2.953 2.953 2.951 2.953 2.953 2.953 2.953 2.953 2.951 2.953 2.953 2.951 2.953 2.953 2.951 2.953 2.953 2.953 2.951 2.951 2.951 2.951 2.953 2.953 2.953 2.953 2.953 2.953 2.953 2.951 2.953 2.953 2.951 2.953 2.951 2.953 2.953 2.951 2.953 2.951 2.951 2.951 2.951 2.951 2.953 2.951 2.951 2.951 2.953 2.953 2.953 2.953 2.953 2.953 2.951 2.951 2.951 2.951 2.951 2.951 2.951 2.951 2.951 2.953 2.951 2.951 2.951 2.953 2.945 2.947 2.943 2.775 2.748 2.742 2.738 2.736 2.736 2.736 2.738 2.740 2.742 2.744 2.746 2.748 2.750 2.750 2.752 2.754 2.758 2.760 2.764 2.766 2.768 2.770 2.770 2.771 2.773 2.773
2.977 2.977 2.977 2.977 2.977 2.977 2.975 2.977 2.975 2.975 2.975 2.975 2.975 2.975 2.977 2.977 2.975 2.975 2.975 2.975 2.977 2.975 2.975 2.975 2.975 2.975 2.975 2.975 2.975 2.975 2.975 2.975 2.975 2.977 2.975 2.975 2.977 2.977 2.975 2.977 2.977 2.977 2.975 2.975 2.975 2.975 2.975 2.975 2.975 2.975 2.975 2.975 2.975 2.975 2.975 2.975 2.975 2.975 2.975 2.975 2.975 2.975 2.975 2.975 2.975 2.975 2.975 2.975 2.975 2.975 2.975 2.975 2.975 2.975 2.975 2.975 2.975 2.975 2.975 2.975 2.975 2.975 2.977 2.975 2.975 2.975 2.975 2.975 2.975 2.973 2.975 2.975 2.975 2.975 2.975 2.975 2.975 2.975 2.975 2.973 2.973 2.973 2.973 2.975 2.973 2.973 2.973 2.975 2.973 2.973 2.975 2.973 2.973 2.975 2.973 2.973 2.973 2.973 2.975 2.973 2.973 2.973 2.973 2.973 2.973 2.973 2.973 2.973 2.973 2.973 2.973 2.973 2.973 2.973 2.973 2.970 2.970 2.970 2.970 2.973 2.973 2.970 2.970 2.970 2.970 2.970 2.970 2.970 2.970 2.970 2.970 2.970 2.970 2.970 2.969 2.969 2.969 2.970 2.970 2.970 2.969 2.969 2.969 2.969 2.969 2.969 2.969 2.969 2.969 2.969 2.967 2.969 2.969 2.967 2.967 2.967 2.967 2.967 2.967 2.967 2.967 2.967 2.967 2.967 2.967 2.967 2.967 2.967 2.967 2.967 2.967 2.967 2.963 2.963 2.967 2.967 2.963 2.967 2.963 2.967 2.967 2.963 2.963 2.967 2.963 2.967 2.963 2.963 2.963 2.963 2.963 2.963 2.963 2.963 2.963 2.963 2.963 2.963 2.963 2.963 2.963 2.963 2.963 2.963 2.963 2.963 2.963 2.963 2.963 2.963 2.963 2.963 2.963 2.963 2.963 2.963 2.963 2.963 2.963 2.963 2.963 2.963 2.960 2.963 2.963 2.963 2.963 2.963 2.963 2.963 2.963 2.963 2.963 2.963 2.963 2.963 2.963 2.963 2.960 2.960 2.963 2.963 2.960 2.963 2.960 2.963 2.960 2.963 2.963 2.960 2.960 2.960 2.960 2.960 2.959 2.960 2.960 2.960 2.960 2.959 2.959 2.959 2.960 2.959 2.959 2.959 2.959 2.959 2.959 2.959 2.959 2.959 2.959 2.959 2.959 2.959 2.959 2.959 2.959 2.959 2.959 2.959 2.959 2.959 2.957 2.957 2.957 2.957 2.959 2.957 2.957 2.957 2.959 2.959 2.959 2.957 2.957 2.957 2.957 2.957 2.957 2.957 2.957 2.957 2.957 2.957 2.957 2.957 2.955 2.957 2.955 2.957 2.957 2.957 2.955 2.957 2.957 2.957 2.955 2.955 2.955 2.955 2.957 2.955 2.957 2.957 2.955 2.955 2.955 2.955 2.955 2.955 2.955 2.955 2.955 2.955 2.953 2.955 2.955 2.955 2.955 2.955 2.955 2.955 2.955 2.955 2.955 2.955 2.955 2.955 2.955 2.953 2.953 2.955 2.955 2.955 2.953 2.953 2.953 2.953 2.953 2.953 2.953 2.953 2.953 2.953 2.953 2.953 2.953 2.953 2.953 2.953 2.953 2.953 2.953 2.953 2.953 2.953 2.953 2.953 2.953 2.953 2.953 2.951 2.951 2.951 2.953 2.951 2.953 2.953 2.953 2.951 2.953 2.953 2.953 2.951 2.951 2.953 2.953 2.951 2.953 2.953 2.953 2.953 2.953 2.953 2.953 2.953 2.951 2.951 2.951 2.953 2.953 2.953 2.951 2.951 2.951 2.951 2.953 2.953 2.953 2.953 2.953 2.951 2.951 2.951 2.953 2.953 2.953 2.953 2.953 2.953 2.953 2.951 2.951 2.951 2.953 2.951 2.951 2.951 2.951 2.951 2.953 2.951 2.951 2.951 2.953 2.945 2.947 2.940 2.775 2.748 2.742 2.738 2.734 2.736 2.738 2.738 2.740 2.742 2.744 2.748 2.748 2.748 2.752 2.752 2.756 2.758 2.760 2.764 2.766 2.768 2.770 2.770 2.771 2.771 2.773
2.977 2.975 2.977 2.977 2.975 2.975 2.977 2.975 2.975 2.975 2.975 2.975 2.975 2.975 2.975 2.975 2.977 2.975 2.977 2.975 2.975 2.975 2.975 2.977 2.975 2.975 2.975 2.975 2.975 2.977 2.975 2.977 2.975 2.975 2.975 2.975 2.977 2.975 2.977 2.975 2.975 2.975 2.975 2.975 2.975 2.975 2.975 2.975 2.975 2.977 2.975 2.975 2.975 2.975 2.975 2.975 2.975 2.975 2.975 2.975 2.975 2.975 2.977 2.977 2.975 2.975 2.975 2.977 2.975 2.975 2.975 2.975 2.975 2.975 2.975 2.975 2.975 2.975 2.975 2.975 2.975 2.977 2.975 2.975 2.975 2.975 2.975 2.975 2.975 2.975 2.975 2.973 2.975 2.973 2.975 2.975 2.975 2.975 2.975 2.975 2.975 2.973 2.975 2.973 2.975 2.973 2.973 2.975 2.975 2.975 2.973 2.973 2.975 2.973 2.973 2.973 2.973 2.975 2.973 2.973 2.973 2.973 2.975 2.973 2.973 2.973 2.970 2.970 2.973 2.973 2.973 2.973 2.970 2.970 2.970 2.970 2.970 2.970 2.970 2.970 2.970 2.970 2.970 2.970 2.970 2.970 2.970 2.970 2.970 2.970 2.970 2.969 2.970 2.969 2.969 2.970 2.969 2.969 2.970 2.969 2.969 2.969 2.969 2.969 2.969 2.969 2.967 2.969 2.969 2.967 2.967 2.969 2.967 2.967 2.967 2.963 2.967 2.967 2.967 2.967 2.967 2.967 2.967 2.967 2.967 2.967 2.967 2.967 2.967 2.967 2.967 2.967 2.967 2.967 2.963 2.967 2.963 2.967 2.967 2.967 2.963 2.967 2.967 2.967 2.967 2.963 2.963 2.963 2.963 2.963 2.963 2.963 2.963 2.963 2.963 2.963 2.963 2.963 2.963 2.963 2.963 2.963 2.963 2.963 2.963 2.963 2.963 2.963 2.963 2.963 2.963 2.963 2.963 2.963 2.963 2.963 2.963 2.963 2.963 2.963 2.963 2.963 2.963 2.963 2.963 2.963 2.963 2.963 2.960 2.963 2.963 2.963 2.963 2.963 2.963 2.960 2.960 2.963 2.963 2.960 2.963 2.963 2.960 2.960 2.960 2.960 2.960 2.960 2.960 2.960 2.963 2.963 2.960 2.960 2.960 2.959 2.959 2.959 2.960 2.959 2.959 2.959 2.959 2.959 2.960 2.959 2.959 2.959 2.959 2.959 2.959 2.959 2.959 2.959 2.959 2.959 2.959 2.959 2.959 2.959 2.959 2.959 2.959 2.959 2.957 2.959 2.957 2.959 2.957 2.959 2.959 2.959 2.957 2.957 2.957 2.957 2.957 2.957 2.957 2.957 2.957 2.957 2.957 2.957 2.957 2.957 2.959 2.957 2.957 2.957 2.957 2.957 2.957 2.957 2.957 2.955 2.955 2.957 2.955 2.957 2.957 2.957 2.957 2.957 2.955 2.955 2.955 2.957 2.957 2.955 2.957 2.955 2.955 2.955 2.955 2.955 2.957 2.955 2.955 2.955 2.955 2.955 2.955 2.955 2.953 2.955 2.955 2.955 2.955 2.955 2.953 2.953 2.955 2.953 2.953 2.955 2.955 2.953 2.953 2.953 2.953 2.953 2.953 2.953 2.953 2.953 2.953 2.953 2.953 2.953 2.953 2.953 2.953 2.953 2.953 2.953 2.953 2.953 2.951 2.953 2.953 2.953 2.953 2.951 2.951 2.951 2.953 2.951 2.951 2.951 2.953 2.953 2.951 2.953 2.951 2.951 2.953 2.953 2.953 2.953 2.951 2.953 2.951 2.953 2.953 2.953 2.953 2.953 2.951 2.953 2.953 2.953 2.953 2.951 2.951 2.951 2.953 2.953 2.951 2.951 2.951 2.951 2.951 2.953 2.953 2.953 2.953 2.951 2.953 2.953 2.953 2.951 2.953 2.953 2.953 2.953 2.951 2.951 2.951 2.951 2.951 2.951 2.953 2.951 2.951 2.950 2.953 2.947 2.947 2.940 2.771 2.746 2.740 2.738 2.736 2.734 2.736 2.738 2.742 2.742 2.746 2.746 2.748 2.748 2.750 2.752 2.754 2.756 2.760 2.762 2.766 2.766 2.768 2.770 2.771 2.771 2.773
2.975 2.975 2.975 2.975 2.977 2.975 2.975 2.975 2.975 2.977 2.977 2.977 2.975 2.975 2.975 2.975 2.977 2.977 2.975 2.975 2.975 2.977 2.975 2.975 2.975 2.975 2.975 2.975 2.975 2.975 2.975 2.975 2.975 2.977 2.975 2.975 2.975 2.975 2.975 2.975 2.975 2.975 2.973 2.975 2.975 2.975 2.975 2.977 2.977 2.977 2.975 2.977 2.975 2.975 2.975 2.975 2.975 2.975 2.975 2.975 2.975 2.975 2.975 2.977 2.975 2.975 2.975 2.975 2.975 2.975 2.975 2.975 2.977 2.975 2.975 2.975 2.975 2.975 2.975 2.975 2.975 2.975 2.975 2.975 2.975 2.975 2.975 2.975 2.975 2.975 2.975 2.973 2.975 2.975 2.975 2.973 2.975 2.975 2.975 2.973 2.973 2.973 2.973 2.973 2.975 2.975 2.975 2.975 2.975 2.975 2.975 2.973 2.975 2.973 2.973 2.973 2.973 2.973 2.973 2.973 2.973 2.973 2.973 2.973 2.973 2.973 2.975 2.973 2.973 2.973 2.970 2.973 2.970 2.970 2.970 2.970 2.970 2.970 2.970 2.970 2.970 2.970 2.970 2.973 2.970 2.970 2.970 2.970 2.970 2.970 2.970 2.969 2.970 2.969 2.969 2.969 2.970 2.969 2.969 2.969 2.969 2.969 2.969 2.969 2.969 2.969 2.969 2.969 2.967 2.967 2.969 2.969 2.967 2.967 2.969 2.969 2.967 2.967 2.967 2.967 2.967 2.967 2.963 2.963 2.967 2.967 2.963 2.967 2.967 2.967 2.967 2.963 2.967 2.963 2.963 2.963 2.963 2.963 2.967 2.967 2.963 2.963 2.963 2.963 2.963 2.967 2.963 2.963 2.963 2.963 2.963 2.963 2.963 2.963 2.963 2.963 2.963 2.963 2.963 2.963 2.963 2.963 2.963 2.963 2.963 2.963 2.963 2.963 2.963 2.963 2.963 2.963 2.963 2.963 2.963 2.963 2.960 2.963 2.963 2.963 2.963 2.963 2.963 2.963 2.963 2.963 2.963 2.963 2.963 2.963 2.963 2.963 2.963 2.963 2.963 2.963 2.960 2.960 2.960 2.960 2.963 2.960 2.960 2.963 2.960 2.960 2.960 2.960 2.960 2.960 2.960 2.960 2.960 2.960 2.960 2.960 2.960 2.959 2.959 2.959 2.959 2.959 2.959 2.959 2.960 2.960 2.959 2.959 2.959 2.959 2.959 2.959 2.959 2.959 2.957 2.959 2.959 2.959 2.959 2.959 2.959 2.959 2.959 2.959 2.959 2.959 2.959 2.959 2.959 2.959 2.959 2.957 2.957 2.957 2.957 2.959 2.957 2.957 2.957 2.957 2.957 2.957 2.957 2.957 2.957 2.957 2.957 2.957 2.957 2.957 2.957 2.957 2.957 2.957 2.957 2.957 2.957 2.957 2.957 2.957 2.955 2.957 2.957 2.957 2.957 2.955 2.955 2.957 2.957 2.955 2.955 2.957 2.955 2.955 2.955 2.955 2.955 2.955 2.955 2.955 2.955 2.955 2.955 2.953 2.953 2.955 2.955 2.955 2.955 2.955 2.955 2.953 2.953 2.953 2.953 2.955 2.955 2.953 2.953 2.953 2.953 2.953 2.953 2.953 2.953 2.953 2.953 2.953 2.953 2.955 2.953 2.953 2.953 2.953 2.953 2.953 2.953 2.953 2.951 2.953 2.951 2.953 2.953 2.951 2.951 2.951 2.951 2.953 2.953 2.953 2.951 2.953 2.953 2.953 2.953 2.953 2.953 2.953 2.953 2.953 2.953 2.953 2.953 2.953 2.953 2.953 2.953 2.953 2.953 2.951 2.951 2.953 2.953 2.953 2.953 2.953 2.953 2.953 2.951 2.951 2.951 2.953 2.953 2.953 2.953 2.953 2.951 2.953 2.953 2.953 2.953 2.951 2.951 2.953 2.953 2.953 2.951 2.951 2.951 2.951 2.951 2.951 2.953 2.951 2.951 2.951 2.951 2.945 2.947 2.940 2.770 2.746 2.740 2.740 2.736 2.736 2.736 2.738 2.742 2.744 2.746 2.748 2.748 2.750 2.750 2.752 2.754 2.758 2.760 2.762 2.766 2.766 2.768 2.770 2.771 2.771 2.771
2.977 2.975 2.975 2.975 2.975 2.975 2.975 2.975 2.975 2.975 2.977 2.975 2.975 2.975 2.975 2.977 2.975 2.975 2.975 2.975 2.977 2.975 2.975 2.975 2.975 2.973 2.975 2.975 2.973 2.975 2.975 2.975 2.975 2.975 2.975 2.975 2.975 2.975 2.975 2.975 2.975 2.975 2.975 2.975 2.973 2.975 2.975 2.975 2.975 2.975 2.975 2.977 2.975 2.975 2.975 2.975 2.975 2.975 2.975 2.975 2.975 2.975 2.975 2.975 2.975 2.977 2.975 2.975 2.975 2.975 2.975 2.975 2.977 2.975 2.975 2.975 2.975 2.975 2.975 2.975 2.975 2.975 2.973 2.973 2.975 2.975 2.975 2.975 2.975 2.975 2.973 2.975 2.973 2.975 2.975 2.975 2.975 2.973 2.975 2.973 2.973 2.973 2.973 2.973 2.973 2.973 2.973 2.973 2.973 2.973 2.975 2.975 2.975 2.973 2.973 2.973 2.973 2.973 2.973 2.973 2.973 2.973 2.973 2.973 2.973 2.973 2.973 2.973 2.970 2.970 2.970 2.970 2.973 2.973 2.973 2.973 2.973 2.970 2.973 2.970 2.970 2.970 2.970 2.973 2.970 2.970 2.970 2.970 2.970 2.969 2.970 2.970 2.969 2.969 2.970 2.969 2.969 2.969 2.969 2.969 2.969 2.969 2.969 2.969 2.967 2.969 2.967 2.969 2.967 2.967 2.967 2.967 2.967 2.967 2.967 2.967 2.967 2.967 2.967 2.967 2.967 2.967 2.967 2.967 2.967 2.963 2.967 2.967 2.963 2.963 2.963 2.967 2.967 2.967 2.963 2.967 2.967 2.967 2.963 2.963 2.963 2.963 2.963 2.963 2.963 2.963 2.967 2.963 2.963 2.963 2.963 2.963 2.963 2.963 2.963 2.963 2.963 2.963 2.963 2.963 2.963 2.963 2.963 2.963 2.963 2.963 2.963 2.963 2.963 2.963 2.963 2.963 2.963 2.963 2.963 2.963 2.963 2.963 2.963 2.963 2.963 2.963 2.963 2.963 2.963 2.963 2.960 2.963 2.963 2.963 2.963 2.963 2.960 2.963 2.963 2.963 2.963 2.963 2.963 2.960 2.960 2.960 2.963 2.960 2.960 2.960 2.963 2.960 2.960 2.960 2.960 2.960 2.960 2.960 2.960 2.959 2.959 2.959 2.959 2.959 2.960 2.959 2.959 2.959 2.959 2.960 2.960 2.959 2.960 2.960 2.959 2.959 2.957 2.959 2.959 2.959 2.959 2.959 2.959 2.959 2.959 2.959 2.957 2.959 2.959 2.959 2.959 2.957 2.959 2.957 2.957 2.957 2.957 2.957 2.957 2.957 2.957 2.957 2.957 2.957 2.957 2.957 2.957 2.957 2.957 2.957 2.957 2.959 2.957 2.957 2.957 2.955 2.955 2.955 2.955 2.957 2.957 2.957 2.957 2.957 2.957 2.955 2.957 2.957 2.957 2.957 2.955 2.955 2.955 2.955 2.957 2.955 2.955 2.955 2.957 2.955 2.955 2.957 2.955 2.955 2.955 2.955 2.955 2.955 2.953 2.955 2.955 2.955 2.955 2.953 2.955 2.953 2.953 2.955 2.953 2.953 2.955 2.955 2.953 2.953 2.953 2.953 2.953 2.953 2.953 2.953 2.953 2.953 2.953 2.953 2.953 2.951 2.953 2.953 2.953 2.953 2.953 2.951 2.951 2.951 2.951 2.953 2.953 2.953 2.953 2.953 2.951 2.953 2.953 2.953 2.953 2.953 2.953 2.953 2.953 2.951 2.951 2.951 2.951 2.951 2.951 2.953 2.953 2.953 2.951 2.951 2.951 2.953 2.951 2.951 2.951 2.953 2.953 2.951 2.953 2.951 2.953 2.951 2.953 2.951 2.953 2.951 2.951 2.953 2.953 2.953 2.953 2.953 2.953 2.953 2.953 2.951 2.953 2.951 2.953 2.951 2.951 2.951 2.951 2.951 2.951 2.951 2.953 2.951 2.951 2.951 2.951 2.945 2.947 2.940 2.770 2.746 2.742 2.738 2.736 2.736 2.736 2.738 2.742 2.744 2.746 2.748 2.748 2.750 2.750 2.750 2.754 2.756 2.760 2.762 2.766 2.766 2.768 2.770 2.771 2.771 2.771
2.975 2.975 2.975 2.977 2.977 2.975 2.975 2.975 2.975 2.975 2.975 2.975 2.977 2.975 2.975 2.975 2.977 2.977 2.975 2.975 2.975 2.975 2.975 2.975 2.977 2.975 2.975 2.975 2.975 2.975 2.975 2.975 2.975 2.975 2.975 2.975 2.975 2.977 2.975 2.975 2.975 2.977 2.975 2.975 2.975 2.975 2.975 2.975 2.975 2.975 2.975 2.975 2.975 2.977 2.975 2.975 2.975 2.975 2.975 2.975 2.975 2.975 2.975 2.975 2.975 2.975 2.975 2.975 2.975 2.975 2.975 2.975 2.975 2.975 2.975 2.975 2.975 2.975 2.975 2.973 2.975 2.975 2.975 2.975 2.975 2.973 2.973 2.975 2.975 2.975 2.975 2.973 2.975 2.975 2.975 2.975 2.975 2.973 2.975 2.975 2.973 2.973 2.973 2.975 2.973 2.973 2.975 2.975 2.975 2.973 2.973 2.973 2.973 2.975 2.973 2.973 2.973 2.973 2.973 2.973 2.973 2.973 2.973 2.970 2.973 2.973 2.973 2.973 2.973 2.973 2.973 2.970 2.970 2.970 2.973 2.973 2.970 2.970 2.970 2.970 2.973 2.970 2.970 2.970 2.970 2.970 2.969 2.970 2.970 2.970 2.970 2.969 2.969 2.970 2.969 2.969 2.969 2.969 2.969 2.969 2.969 2.969 2.969 2.969 2.969 2.969 2.969 2.969 2.969 2.969 2.967 2.969 2.967 2.967 2.967 2.967 2.967 2.967 2.969 2.967 2.969 2.967 2.967 2.969 2.967 2.969 2.967 2.967 2.963 2.967 2.967 2.967 2.967 2.967 2.967 2.967 2.967 2.967 2.963 2.967 2.967 2.963 2.963 2.963 2.963 2.963 2.963 2.963 2.963 2.963 2.963 2.963 2.963 2.963 2.963 2.963 2.963 2.963 2.963 2.963 2.963 2.963 2.963 2.963 2.963 2.963 2.963 2.963 2.963 2.963 2.963 2.963 2.963 2.963 2.963 2.963 2.963 2.963 2.963 2.963 2.963 2.963 2.963 2.963 2.963 2.960 2.960 2.963 2.963 2.963 2.963 2.963 2.963 2.963 2.963 2.960 2.963 2.963 2.963 2.960 2.963 2.963 2.963 2.963 2.963 2.963 2.963 2.960 2.960 2.960 2.960 2.960 2.960 2.960 2.960 2.960 2.960 2.960 2.959 2.959 2.959 2.959 2.959 2.959 2.959 2.959 2.959 2.959 2.959 2.960 2.959 2.959 2.959 2.959 2.959 2.959 2.959 2.959 2.959 2.959 2.959 2.960 2.959 2.957 2.957 2.959 2.957 2.957 2.957 2.957 2.957 2.957 2.957 2.957 2.957 2.957 2.957 2.957 2.957 2.957 2.957 2.955 2.957 2.957 2.957 2.957 2.957 2.957 2.957 2.957 2.957 2.957 2.957 2.955 2.957 2.957 2.957 2.957 2.955 2.957 2.957 2.957 2.955 2.957 2.955 2.957 2.955 2.955 2.955 2.957 2.957 2.955 2.955 2.957 2.957 2.955 2.955 2.955 2.955 2.955 2.955 2.955 2.955 2.953 2.955 2.955 2.953 2.955 2.955 2.955 2.953 2.953 2.955 2.955 2.953 2.953 2.953 2.953 2.953 2.953 2.953 2.953 2.953 2.953 2.953 2.953 2.953 2.955 2.953 2.953 2.953 2.953 2.953 2.953 2.953 2.953 2.951 2.953 2.951 2.953 2.953 2.953 2.951 2.955 2.953 2.953 2.953 2.953 2.953 2.953 2.953 2.953 2.953 2.951 2.951 2.951 2.951 2.953 2.953 2.953 2.953 2.953 2.953 2.953 2.953 2.951 2.951 2.951 2.953 2.953 2.953 2.953 2.953 2.951 2.951 2.951 2.951 2.951 2.953 2.953 2.953 2.951 2.953 2.953 2.953 2.953 2.953 2.953 2.953 2.953 2.953 2.951 2.951 2.951 2.953 2.953 2.953 2.951 2.951 2.951 2.951 2.951 2.953 2.951 2.951 2.951 2.951 2.945 2.950 2.936 2.770 2.746 2.740 2.738 2.736 2.736 2.738 2.738 2.742 2.744 2.746 2.748 2.748 2.748 2.748 2.752 2.754 2.758 2.760 2.762 2.764 2.766 2.768 2.770 2.771 2.771 2.773
2.977 2.975 2.975 2.975 2.975 2.975 2.975 2.975 2.975 2.973 2.975 2.975 2.975 2.975 2.975 2.975 2.975 2.975 2.975 2.975 2.975 2.977 2.975 2.975 2.975 2.975 2.975 2.975 2.975 2.975 2.975 2.975 2.977 2.975 2.975 2.975 2.975 2.975 2.975 2.977 2.975 2.977 2.977 2.975 2.975 2.975 2.975 2.975 2.975 2.975 2.975 2.975 2.975 2.975 2.977 2.975 2.975 2.975 2.975 2.975 2.975 2.975 2.975 2.975 2.975 2.975 2.975 2.975 2.975 2.975 2.975 2.975 2.975 2.975 2.973 2.975 2.975 2.975 2.975 2.975 2.975 2.975 2.975 2.975 2.973 2.973 2.977 2.975 2.973 2.975 2.975 2.973 2.973 2.973 2.973 2.975 2.975 2.975 2.973 2.973 2.975 2.973 2.973 2.973 2.973 2.975 2.973 2.975 2.975 2.973 2.973 2.973 2.975 2.973 2.975 2.973 2.973 2.973 2.973 2.973 2.973 2.973 2.973 2.970 2.973 2.970 2.973 2.973 2.973 2.973 2.973 2.970 2.970 2.970 2.973 2.970 2.970 2.970 2.973 2.970 2.970 2.970 2.970 2.970 2.970 2.970 2.970 2.970 2.970 2.970 2.969 2.969 2.970 2.969 2.970 2.969 2.969 2.969 2.969 2.969 2.969 2.969 2.969 2.969 2.969 2.969 2.969 2.969 2.969 2.969 2.969 2.969 2.967 2.967 2.967 2.967 2.967 2.967 2.967 2.967 2.967 2.967 2.969 2.967 2.967 2.967 2.967 2.967 2.967 2.967 2.963 2.967 2.963 2.967 2.967 2.967 2.967 2.963 2.967 2.963 2.963 2.967 2.963 2.963 2.963 2.963 2.967 2.963 2.963 2.963 2.963 2.963 2.963 2.963 2.963 2.963 2.963 2.963 2.963 2.963 2.963 2.963 2.963 2.963 2.963 2.963 2.963 2.963 2.963 2.963 2.963 2.963 2.963 2.963 2.963 2.963 2.963 2.963 2.963 2.960 2.963 2.963 2.963 2.963 2.963 2.963 2.963 2.963 2.963 2.963 2.963 2.963 2.963 2.963 2.960 2.963 2.963 2.960 2.963 2.963 2.963 2.960 2.963 2.960 2.963 2.963 2.963 2.960 2.960 2.960 2.960 2.959 2.959 2.959 2.960 2.959 2.959 2.959 2.957 2.959 2.960 2.959 2.959 2.959 2.959 2.959 2.959 2.959 2.959 2.959 2.959 2.960 2.959 2.959 2.959 2.959 2.959 2.957 2.959 2.959 2.960 2.959 2.959 2.959 2.957 2.957 2.957 2.959 2.957 2.957 2.957 2.957 2.957 2.957 2.957 2.957 2.957 2.957 2.957 2.957 2.957 2.955 2.957 2.957 2.957 2.957 2.957 2.957 2.957 2.957 2.957 2.957 2.957 2.957 2.957 2.957 2.957 2.957 2.957 2.957 2.957 2.957 2.955 2.957 2.955 2.955 2.955 2.957 2.957 2.955 2.957 2.955 2.955 2.955 2.955 2.957 2.955 2.955 2.955 2.955 2.955 2.955 2.955 2.955 2.955 2.953 2.953 2.955 2.955 2.953 2.953 2.955 2.955 2.955 2.953 2.953 2.953 2.953 2.955 2.953 2.953 2.953 2.953 2.953 2.953 2.953 2.953 2.953 2.953 2.953 2.953 2.953 2.953 2.953 2.953 2.953 2.953 2.951 2.953 2.953 2.953 2.953 2.953 2.953 2.953 2.953 2.953 2.953 2.951 2.951 2.951 2.953 2.953 2.953 2.951 2.951 2.951 2.951 2.951 2.953 2.951 2.953 2.951 2.953 2.953 2.951 2.953 2.953 2.951 2.951 2.953 2.951 2.953 2.953 2.953 2.951 2.953 2.953 2.953 2.953 2.953 2.953 2.951 2.953 2.953 2.953 2.953 2.953 2.953 2.951 2.951 2.953 2.951 2.951 2.953 2.951 2.951 2.951 2.951 2.951 2.951 2.951 2.953 2.951 2.951 2.950 2.951 2.945 2.950 2.932 2.768 2.746 2.740 2.738 2.736 2.736 2.736 2.740 2.742 2.744 2.744 2.748 2.748 2.748 2.750 2.752 2.752 2.756 2.760 2.762 2.764 2.766 2.768 2.770 2.770 2.771 2.771
2.977 2.977 2.975 2.975 2.977 2.975 2.975 2.975 2.975 2.973 2.977 2.975 2.975 2.975 2.975 2.977 2.975 2.975 2.975 2.975 2.975 2.975 2.975 2.975 2.975 2.975 2.975 2.975 2.975 2.975 2.975 2.975 2.975 2.977 2.975 2.975 2.975 2.975 2.975 2.975 2.975 2.975 2.975 2.975 2.975 2.975 2.975 2.975 2.975 2.975 2.975 2.975 2.975 2.975 2.975 2.975 2.975 2.975 2.975 2.975 2.975 2.975 2.975 2.975 2.975 2.975 2.975 2.975 2.975 2.975 2.975 2.973 2.975 2.975 2.975 2.975 2.973 2.975 2.977 2.975 2.973 2.975 2.975 2.975 2.975 2.975 2.975 2.975 2.975 2.975 2.975 2.975 2.973 2.975 2.975 2.975 2.975 2.975 2.975 2.975 2.973 2.975 2.975 2.975 2.975 2.975 2.973 2.973 2.975 2.973 2.975 2.975 2.973 2.973 2.973 2.973 2.973 2.973 2.973 2.973 2.973 2.973 2.973 2.973 2.973 2.973 2.973 2.973 2.973 2.973 2.973 2.970 2.970 2.970 2.970 2.970 2.970 2.973 2.973 2.970 2.970 2.970 2.970 2.970 2.970 2.970 2.973 2.970 2.969 2.969 2.969 2.970 2.970 2.970 2.969 2.970 2.969 2.969 2.969 2.969 2.969 2.969 2.969 2.969 2.969 2.967 2.969 2.969 2.967 2.969 2.967 2.967 2.967 2.967 2.967 2.967 2.967 2.967 2.967 2.967 2.967 2.967 2.967 2.967 2.967 2.967 2.967 2.969 2.967 2.967 2.963 2.963 2.967 2.967 2.967 2.967 2.963 2.967 2.963 2.967 2.967 2.963 2.967 2.963 2.967 2.967 2.963 2.963 2.963 2.963 2.963 2.963 2.963 2.963 2.963 2.963 2.963 2.963 2.963 2.963 2.963 2.963 2.963 2.963 2.963 2.963 2.963 2.963 2.963 2.963 2.963 2.963 2.963 2.963 2.963 2.963 2.963 2.963 2.963 2.963 2.963 2.963 2.963 2.963 2.963 2.963 2.963 2.963 2.963 2.963 2.963 2.963 2.963 2.963 2.960 2.963 2.960 2.960 2.960 2.963 2.960 2.960 2.960 2.963 2.960 2.960 2.963 2.960 2.963 2.960 2.960 2.959 2.960 2.960 2.960 2.959 2.959 2.960 2.960 2.960 2.960 2.959 2.959 2.959 2.959 2.959 2.959 2.959 2.959 2.960 2.959 2.959 2.959 2.959 2.959 2.959 2.959 2.959 2.957 2.959 2.959 2.959 2.959 2.959 2.959 2.959 2.957 2.959 2.959 2.957 2.957 2.957 2.959 2.957 2.957 2.957 2.957 2.957 2.957 2.957 2.957 2.957 2.957 2.957 2.957 2.957 2.957 2.957 2.957 2.957 2.957 2.957 2.957 2.957 2.957 2.955 2.955 2.957 2.957 2.955 2.957 2.957 2.957 2.955 2.955 2.955 2.957 2.955 2.955 2.955 2.955 2.955 2.955 2.955 2.955 2.955 2.955 2.955 2.953 2.953 2.955 2.955 2.955 2.955 2.953 2.953 2.955 2.955 2.955 2.953 2.955 2.953 2.953 2.953 2.955 2.953 2.955 2.953 2.953 2.953 2.953 2.953 2.953 2.953 2.953 2.953 2.953 2.953 2.953 2.953 2.953 2.953 2.953 2.953 2.953 2.953 2.955 2.953 2.951 2.953 2.953 2.953 2.953 2.953 2.953 2.953 2.951 2.951 2.951 2.951 2.953 2.953 2.951 2.951 2.951 2.951 2.951 2.951 2.951 2.951 2.953 2.953 2.951 2.953 2.953 2.951 2.951 2.951 2.951 2.953 2.951 2.953 2.953 2.953 2.953 2.953 2.953 2.953 2.953 2.953 2.953 2.951 2.953 2.953 2.953 2.953 2.953 2.953 2.953 2.951 2.953 2.953 2.951 2.951 2.951 2.951 2.951 2.951 2.951 2.951 2.953 2.953 2.953 2.951 2.951 2.951 2.951 2.943 2.950 2.928 2.766 2.744 2.740 2.738 2.736 2.736 2.738 2.738 2.740 2.742 2.744 2.748 2.748 2.750 2.750 2.750 2.754 2.756 2.758 2.762 2.764 2.766 2.768 2.768 2.770 2.771 2.773
2.975 2.975 2.975 2.975 2.975 2.975 2.975 2.975 2.975 2.975 2.975 2.973 2.975 2.975 2.975 2.977 2.977 2.977 2.977 2.975 2.975 2.975 2.975 2.975 2.975 2.975 2.975 2.975 2.975 2.975 2.975 2.975 2.975 2.975 2.975 2.975 2.975 2.975 2.975 2.975 2.975 2.975 2.975 2.975 2.975 2.973 2.975 2.975 2.975 2.975 2.975 2.975 2.975 2.975 2.975 2.975 2.975 2.975 2.975 2.973 2.975 2.975 2.975 2.975 2.975 2.975 2.975 2.975 2.975 2.975 2.975 2.975 2.975 2.975 2.975 2.975 2.975 2.975 2.977 2.975 2.975 2.975 2.975 2.975 2.975 2.975 2.975 2.973 2.975 2.975 2.975 2.975 2.975 2.975 2.975 2.975 2.973 2.973 2.975 2.975 2.973 2.973 2.973 2.973 2.973 2.973 2.973 2.973 2.973 2.973 2.973 2.973 2.973 2.973 2.973 2.973 2.975 2.973 2.970 2.973 2.973 2.970 2.973 2.973 2.973 2.970 2.970 2.973 2.970 2.970 2.970 2.970 2.973 2.973 2.973 2.970 2.970 2.970 2.970 2.970 2.970 2.970 2.970 2.970 2.970 2.970 2.970 2.970 2.970 2.969 2.969 2.969 2.969 2.969 2.970 2.969 2.969 2.969 2.969 2.969 2.970 2.969 2.969 2.969 2.969 2.969 2.967 2.969 2.969 2.969 2.969 2.969 2.969 2.969 2.967 2.967 2.967 2.967 2.967 2.967 2.967 2.967 2.967 2.967 2.967 2.967 2.967 2.967 2.967 2.967 2.967 2.967 2.967 2.967 2.963 2.963 2.963 2.963 2.967 2.963 2.963 2.963 2.963 2.963 2.963 2.963 2.963 2.963 2.963 2.963 2.963 2.963 2.963 2.963 2.963 2.963 2.963 2.963 2.963 2.963 2.963 2.963 2.963 2.963 2.963 2.963 2.963 2.963 2.963 2.963 2.963 2.963 2.963 2.963 2.963 2.963 2.963 2.963 2.963 2.963 2.963 2.963 2.963 2.963 2.963 2.963 2.960 2.963 2.963 2.960 2.963 2.963 2.963 2.963 2.963 2.963 2.963 2.960 2.963 2.960 2.963 2.963 2.960 2.960 2.960 2.963 2.960 2.960 2.960 2.960 2.960 2.960 2.960 2.960 2.960 2.960 2.960 2.959 2.959 2.960 2.959 2.959 2.959 2.959 2.959 2.959 2.959 2.959 2.959 2.959 2.960 2.959 2.959 2.959 2.960 2.959 2.959 2.959 2.957 2.959 2.959 2.957 2.957 2.957 2.959 2.957 2.957 2.957 2.959 2.957 2.959 2.957 2.957 2.957 2.957 2.957 2.957 2.955 2.957 2.957 2.959 2.957 2.957 2.957 2.957 2.957 2.957 2.957 2.957 2.957 2.957 2.957 2.959 2.957 2.957 2.957 2.957 2.955 2.957 2.957 2.955 2.957 2.955 2.957 2.955 2.957 2.957 2.955 2.955 2.955 2.955 2.955 2.955 2.955 2.955 2.955 2.955 2.955 2.955 2.955 2.955 2.955 2.957 2.955 2.955 2.955 2.955 2.953 2.955 2.953 2.953 2.953 2.953 2.953 2.953 2.953 2.953 2.951 2.953 2.953 2.953 2.953 2.953 2.953 2.953 2.953 2.953 2.953 2.953 2.953 2.953 2.953 2.953 2.953 2.953 2.951 2.953 2.953 2.953 2.953 2.953 2.953 2.953 2.953 2.953 2.951 2.951 2.953 2.953 2.951 2.953 2.953 2.951 2.953 2.951 2.953 2.953 2.951 2.951 2.953 2.951 2.953 2.953 2.953 2.953 2.953 2.951 2.951 2.953 2.953 2.951 2.951 2.953 2.953 2.953 2.953 2.951 2.953 2.951 2.953 2.951 2.953 2.953 2.953 2.951 2.951 2.953 2.953 2.953 2.953 2.951 2.951 2.951 2.951 2.951 2.951 2.951 2.951 2.951 2.951 2.951 2.953 2.953 2.951 2.950 2.951 2.951 2.945 2.950 2.922 2.764 2.744 2.740 2.738 2.736 2.736 2.738 2.738 2.740 2.744 2.746 2.746 2.748 2.748 2.748 2.752 2.752 2.756 2.760 2.762 2.764 2.766 2.768 2.768 2.770 2.771 2.771
2.975 2.975 2.973 2.975 2.977 2.975 2.977 2.975 2.975 2.973 2.975 2.975 2.975 2.975 2.975 2.977 2.975 2.977 2.975 2.975 2.975 2.975 2.975 2.977 2.975 2.975 2.973 2.975 2.975 2.975 2.975 2.975 2.973 2.973 2.973 2.975 2.975 2.975 2.975 2.975 2.975 2.975 2.975 2.975 2.975 2.975 2.975 2.975 2.975 2.975 2.973 2.975 2.975 2.975 2.975 2.975 2.975 2.975 2.975 2.975 2.975 2.975 2.975 2.975 2.975 2.975 2.975 2.975 2.975 2.975 2.975 2.975 2.975 2.975 2.975 2.975 2.975 2.975 2.975 2.975 2.975 2.973 2.973 2.975 2.975 2.975 2.975 2.975 2.975 2.975 2.975 2.975 2.975 2.975 2.973 2.975 2.973 2.975 2.975 2.975 2.975 2.973 2.973 2.973 2.973 2.973 2.973 2.973 2.973 2.975 2.973 2.973 2.973 2.973 2.973 2.973 2.973 2.970 2.973 2.973 2.970 2.973 2.973 2.970 2.970 2.973 2.970 2.970 2.970 2.970 2.970 2.970 2.973 2.970 2.970 2.973 2.970 2.970 2.970 2.973 2.973 2.970 2.970 2.970 2.970 2.970 2.970 2.970 2.970 2.970 2.969 2.969 2.969 2.969 2.970 2.970 2.969 2.969 2.969 2.969 2.969 2.969 2.969 2.969 2.969 2.969 2.967 2.967 2.969 2.967 2.967 2.969 2.967 2.969 2.969 2.967 2.967 2.967 2.967 2.967 2.963 2.967 2.967 2.967 2.967 2.967 2.967 2.967 2.967 2.967 2.963 2.967 2.963 2.963 2.963 2.967 2.963 2.967 2.963 2.963 2.963 2.963 2.963 2.963 2.963 2.963 2.963 2.963 2.963 2.963 2.963 2.963 2.963 2.963 2.963 2.963 2.963 2.963 2.963 2.963 2.963 2.963 2.963 2.963 2.963 2.963 2.963 2.963 2.963 2.963 2.963 2.963 2.963 2.963 2.963 2.963 2.963 2.963 2.963 2.963 2.963 2.963 2.963 2.963 2.963 2.960 2.963 2.963 2.963 2.963 2.963 2.963 2.963 2.963 2.963 2.960 2.960 2.963 2.960 2.960 2.963 2.963 2.960 2.960 2.960 2.960 2.963 2.960 2.960 2.960 2.960 2.960 2.960 2.960 2.960 2.959 2.959 2.959 2.959 2.959 2.959 2.959 2.959 2.959 2.959 2.959 2.959 2.959 2.959 2.959 2.959 2.959 2.959 2.959 2.959 2.960 2.959 2.959 2.959 2.959 2.959 2.959 2.959 2.959 2.959 2.959 2.959 2.957 2.957 2.957 2.957 2.957 2.957 2.957 2.957 2.957 2.957 2.957 2.957 2.957 2.957 2.957 2.957 2.955 2.957 2.957 2.957 2.957 2.957 2.959 2.957 2.957 2.957 2.957 2.957 2.957 2.957 2.955 2.955 2.955 2.955 2.955 2.955 2.955 2.955 2.955 2.953 2.955 2.957 2.955 2.955 2.955 2.955 2.957 2.955 2.955 2.955 2.955 2.955 2.955 2.955 2.955 2.953 2.953 2.955 2.953 2.953 2.953 2.955 2.955 2.955 2.953 2.953 2.953 2.953 2.953 2.953 2.953 2.953 2.953 2.953 2.953 2.951 2.953 2.953 2.953 2.953 2.953 2.953 2.953 2.953 2.953 2.953 2.953 2.953 2.953 2.953 2.953 2.953 2.953 2.951 2.951 2.953 2.953 2.951 2.953 2.953 2.953 2.953 2.951 2.951 2.953 2.953 2.953 2.951 2.951 2.951 2.953 2.953 2.951 2.951 2.951 2.953 2.953 2.951 2.951 2.953 2.953 2.951 2.951 2.951 2.951 2.953 2.951 2.951 2.953 2.951 2.951 2.951 2.953 2.953 2.951 2.953 2.951 2.953 2.951 2.953 2.953 2.953 2.953 2.953 2.953 2.951 2.951 2.951 2.953 2.951 2.951 2.951 2.951 2.953 2.953 2.953 2.951 2.950 2.951 2.953 2.943 2.951 2.916 2.762 2.742 2.738 2.738 2.738 2.736 2.736 2.738 2.742 2.744 2.744 2.746 2.746 2.748 2.750 2.752 2.754 2.756 2.760 2.762 2.764 2.766 2.768 2.770 2.770 2.771 2.773
2.975 2.975 2.975 2.975 2.975 2.975 2.975 2.975 2.975 2.975 2.977 2.975 2.975 2.975 2.975 2.975 2.975 2.975 2.975 2.977 2.975 2.975 2.975 2.975 2.975 2.975 2.975 2.975 2.975 2.973 2.973 2.973 2.973 2.973 2.975 2.975 2.973 2.975 2.975 2.975 2.975 2.975 2.975 2.973 2.975 2.973 2.973 2.973 2.973 2.973 2.973 2.975 2.975 2.975 2.975 2.975 2.975 2.975 2.975 2.975 2.975 2.973 2.975 2.975 2.975 2.975 2.975 2.975 2.975 2.975 2.975 2.975 2.975 2.975 2.975 2.975 2.975 2.975 2.975 2.975 2.975 2.973 2.973 2.973 2.975 2.975 2.975 2.975 2.973 2.975 2.973 2.975 2.973 2.973 2.973 2.973 2.973 2.975 2.975 2.975 2.973 2.975 2.975 2.973 2.973 2.973 2.973 2.973 2.973 2.975 2.975 2.973 2.973 2.973 2.973 2.973 2.975 2.973 2.973 2.970 2.973 2.973 2.973 2.973 2.970 2.970 2.970 2.970 2.970 2.970 2.970 2.970 2.970 2.970 2.970 2.970 2.970 2.973 2.970 2.970 2.970 2.970 2.970 2.970 2.969 2.969 2.970 2.969 2.970 2.970 2.969 2.969 2.970 2.970 2.970 2.969 2.969 2.969 2.967 2.969 2.969 2.969 2.969 2.969 2.969 2.969 2.969 2.969 2.969 2.969 2.969 2.969 2.969 2.969 2.967 2.969 2.969 2.967 2.967 2.967 2.967 2.967 2.967 2.963 2.967 2.967 2.963 2.967 2.963 2.967 2.963 2.963 2.963 2.963 2.963 2.963 2.963 2.963 2.963 2.963 2.963 2.963 2.963 2.963 2.963 2.963 2.963 2.963 2.963 2.963 2.963 2.963 2.963 2.963 2.963 2.963 2.963 2.963 2.963 2.963 2.963 2.963 2.963 2.963 2.963 2.963 2.963 2.963 2.963 2.963 2.963 2.963 2.963 2.963 2.963 2.963 2.963 2.963 2.963 2.963 2.963 2.963 2.963 2.963 2.960 2.960 2.963 2.963 2.960 2.963 2.963 2.963 2.963 2.963 2.963 2.960 2.960 2.960 2.963 2.963 2.960 2.960 2.960 2.960 2.960 2.960 2.960 2.960 2.960 2.960 2.960 2.960 2.960 2.959 2.960 2.959 2.959 2.959 2.959 2.959 2.959 2.959 2.960 2.959 2.959 2.959 2.959 2.959 2.959 2.959 2.959 2.959 2.960 2.959 2.959 2.959 2.959 2.959 2.959 2.959 2.959 2.959 2.959 2.959 2.959 2.957 2.959 2.957 2.959 2.957 2.957 2.957 2.957 2.957 2.957 2.955 2.957 2.957 2.957 2.957 2.957 2.957 2.957 2.957 2.957 2.957 2.957 2.957 2.957 2.957 2.957 2.955 2.957 2.955 2.957 2.957 2.957 2.957 2.957 2.957 2.955 2.955 2.955 2.957 2.955 2.955 2.957 2.957 2.955 2.955 2.955 2.955 2.955 2.955 2.955 2.953 2.955 2.955 2.955 2.955 2.955 2.955 2.953 2.955 2.955 2.955 2.955 2.955 2.955 2.953 2.953 2.953 2.953 2.955 2.953 2.953 2.953 2.953 2.953 2.953 2.953 2.953 2.953 2.953 2.953 2.953 2.953 2.953 2.953 2.953 2.953 2.953 2.953 2.953 2.953 2.953 2.953 2.951 2.953 2.953 2.953 2.951 2.951 2.951 2.953 2.953 2.951 2.951 2.951 2.951 2.951 2.953 2.951 2.951 2.953 2.953 2.951 2.951 2.951 2.951 2.953 2.951 2.953 2.953 2.951 2.951 2.951 2.951 2.951 2.951 2.951 2.953 2.951 2.951 2.951 2.951 2.951 2.951 2.951 2.951 2.951 2.951 2.951 2.953 2.953 2.953 2.953 2.953 2.953 2.953 2.953 2.951 2.951 2.953 2.953 2.951 2.951 2.951 2.951 2.951 2.953 2.951 2.951 2.951 2.951 2.951 2.953 2.950 2.951 2.912 2.760 2.742 2.742 2.738 2.738 2.734 2.738 2.740 2.742 2.744 2.746 2.746 2.748 2.748 2.748 2.750 2.754 2.756 2.760 2.760 2.764 2.766 2.768 2.768 2.768 2.770 2.771
2.975 2.977 2.975 2.977 2.975 2.977 2.975 2.975 2.975 2.975 2.975 2.975 2.975 2.973 2.973 2.975 2.975 2.975 2.975 2.975 2.975 2.975 2.975 2.975 2.975 2.975 2.975 2.975 2.975 2.975 2.975 2.975 2.975 2.973 2.973 2.973 2.975 2.975 2.975 2.973 2.973 2.975 2.975 2.975 2.975 2.973 2.973 2.975 2.973 2.975 2.975 2.975 2.975 2.975 2.975 2.975 2.975 2.975 2.975 2.975 2.975 2.975 2.975 2.975 2.975 2.975 2.975 2.975 2.973 2.975 2.975 2.975 2.973 2.975 2.975 2.975 2.975 2.975 2.973 2.975 2.975 2.973 2.973 2.973 2.975 2.975 2.975 2.975 2.973 2.975 2.975 2.975 2.975 2.973 2.973 2.975 2.973 2.975 2.975 2.975 2.975 2.975 2.975 2.973 2.973 2.975 2.973 2.975 2.973 2.973 2.973 2.973 2.973 2.973 2.973 2.973 2.973 2.973 2.973 2.973 2.970 2.973 2.973 2.973 2.973 2.970 2.970 2.973 2.973 2.970 2.970 2.970 2.970 2.970 2.970 2.970 2.970 2.970 2.970 2.970 2.970 2.970 2.970 2.970 2.970 2.970 2.970 2.970 2.970 2.970 2.969 2.969 2.969 2.969 2.969 2.969 2.969 2.969 2.969 2.969 2.969 2.969 2.969 2.969 2.969 2.970 2.969 2.969 2.969 2.969 2.969 2.969 2.967 2.967 2.967 2.967 2.969 2.967 2.967 2.967 2.967 2.967 2.963 2.963 2.963 2.963 2.963 2.967 2.967 2.967 2.967 2.967 2.963 2.963 2.963 2.963 2.963 2.963 2.963 2.963 2.963 2.963 2.963 2.963 2.963 2.963 2.963 2.963 2.963 2.963 2.963 2.963 2.963 2.963 2.963 2.963 2.963 2.963 2.963 2.963 2.963 2.963 2.963 2.963 2.963 2.963 2.963 2.963 2.963 2.963 2.960 2.963 2.963 2.963 2.963 2.963 2.963 2.963 2.963 2.963 2.963 2.963 2.960 2.960 2.963 2.963 2.963 2.963 2.963 2.963 2.963 2.963 2.963 2.963 2.963 2.963 2.963 2.963 2.963 2.963 2.960 2.963 2.963 2.960 2.960 2.960 2.960 2.960 2.960 2.960 2.960 2.960 2.960 2.960 2.959 2.959 2.959 2.959 2.960 2.960 2.959 2.959 2.959 2.960 2.960 2.959 2.959 2.959 2.959 2.959 2.959 2.959 2.959 2.959 2.959 2.959 2.960 2.959 2.959 2.959 2.959 2.959 2.959 2.959 2.959 2.957 2.959 2.959 2.957 2.959 2.957 2.959 2.957 2.957 2.955 2.957 2.957 2.957 2.957 2.957 2.959 2.957 2.957 2.957 2.955 2.957 2.957 2.957 2.957 2.957 2.957 2.957 2.955 2.957 2.955 2.957 2.957 2.957 2.955 2.955 2.955 2.955 2.955 2.955 2.955 2.957 2.955 2.955 2.955 2.955 2.955 2.955 2.953 2.955 2.955 2.955 2.955 2.955 2.955 2.955 2.955 2.955 2.955 2.955 2.953 2.955 2.953 2.955 2.953 2.953 2.955 2.953 2.953 2.953 2.953 2.953 2.953 2.953 2.953 2.953 2.953 2.953 2.951 2.953 2.953 2.953 2.953 2.953 2.953 2.953 2.951 2.953 2.953 2.953 2.953 2.953 2.953 2.953 2.953 2.953 2.953 2.953 2.951 2.951 2.953 2.953 2.953 2.953 2.953 2.953 2.951 2.951 2.953 2.953 2.953 2.951 2.951 2.951 2.951 2.953 2.951 2.953 2.953 2.953 2.953 2.953 2.953 2.953 2.951 2.953 2.951 2.953 2.953 2.951 2.951 2.953 2.953 2.953 2.953 2.953 2.953 2.953 2.953 2.951 2.953 2.953 2.953 2.951 2.953 2.951 2.951 2.953 2.953 2.953 2.951 2.951 2.953 2.951 2.953 2.953 2.951 2.951 2.953 2.951 2.951 2.951 2.953 2.950 2.953 2.902 2.758 2.742 2.740 2.738 2.736 2.736 2.736 2.738 2.742 2.744 2.744 2.746 2.746 2.748 2.750 2.752 2.754 2.756 2.758 2.762 2.764 2.766 2.768 2.768 2.770 2.771 2.773
2.975 2.975 2.975 2.975 2.975 2.975 2.975 2.975 2.975 2.973 2.975 2.975 2.975 2.975 2.975 2.975 2.975 2.975 2.975 2.975 2.975 2.975 2.975 2.975 2.975 2.975 2.975 2.975 2.975 2.973 2.973 2.973 2.973 2.975 2.975 2.975 2.973 2.975 2.975 2.975 2.975 2.975 2.975 2.975 2.975 2.975 2.975 2.973 2.973 2.973 2.973 2.973 2.973 2.973 2.973 2.975 2.975 2.975 2.975 2.975 2.977 2.975 2.975 2.975 2.975 2.975 2.975 2.975 2.975 2.975 2.975 2.975 2.975 2.975 2.975 2.973 2.975 2.975 2.975 2.975 2.975 2.975 2.975 2.973 2.975 2.975 2.975 2.973 2.975 2.975 2.973 2.975 2.975 2.975 2.975 2.975 2.975 2.973 2.973 2.973 2.973 2.973 2.973 2.975 2.973 2.973 2.973 2.973 2.973 2.973 2.973 2.973 2.973 2.973 2.973 2.973 2.973 2.973 2.973 2.973 2.973 2.973 2.970 2.973 2.973 2.970 2.973 2.973 2.970 2.970 2.970 2.970 2.970 2.970 2.970 2.970 2.970 2.970 2.970 2.970 2.970 2.970 2.970 2.970 2.970 2.970 2.970 2.970 2.970 2.970 2.970 2.969 2.969 2.969 2.969 2.969 2.969 2.969 2.969 2.969 2.969 2.969 2.969 2.969 2.969 2.969 2.969 2.969 2.967 2.969 2.969 2.969 2.967 2.967 2.967 2.967 2.967 2.967 2.969 2.967 2.967 2.967 2.967 2.963 2.967 2.967 2.967 2.967 2.963 2.963 2.967 2.963 2.963 2.963 2.963 2.963 2.963 2.963 2.963 2.963 2.963 2.963 2.963 2.963 2.963 2.963 2.963 2.963 2.963 2.963 2.963 2.963 2.963 2.963 2.963 2.963 2.963 2.963 2.963 2.963 2.963 2.963 2.963 2.963 2.963 2.963 2.963 2.963 2.963 2.963 2.963 2.963 2.963 2.963 2.963 2.963 2.963 2.963 2.963 2.963 2.963 2.963 2.960 2.963 2.963 2.963 2.963 2.963 2.963 2.963 2.963 2.963 2.963 2.960 2.963 2.963 2.963 2.963 2.960 2.963 2.963 2.960 2.960 2.960 2.960 2.963 2.960 2.960 2.960 2.960 2.960 2.960 2.959 2.959 2.960 2.959 2.959 2.959 2.959 2.959 2.960 2.959 2.959 2.959 2.959 2.959 2.960 2.959 2.959 2.959 2.959 2.959 2.959 2.959 2.959 2.959 2.959 2.959 2.957 2.957 2.959 2.959 2.957 2.959 2.959 2.959 2.959 2.959 2.957 2.957 2.957 2.957 2.957 2.957 2.957 2.957 2.957 2.957 2.957 2.957 2.957 2.955 2.957 2.955 2.957 2.957 2.957 2.957 2.957 2.957 2.957 2.955 2.955 2.957 2.957 2.957 2.957 2.955 2.957 2.955 2.955 2.957 2.955 2.955 2.955 2.955 2.955 2.955 2.955 2.955 2.955 2.955 2.955 2.955 2.955 2.955 2.953 2.953 2.955 2.955 2.955 2.955 2.953 2.955 2.955 2.953 2.953 2.955 2.955 2.955 2.955 2.955 2.953 2.953 2.953 2.953 2.953 2.953 2.953 2.953 2.953 2.953 2.953 2.951 2.953 2.953 2.953 2.953 2.953 2.951 2.953 2.953 2.953 2.953 2.953 2.951 2.951 2.951 2.953 2.951 2.953 2.953 2.953 2.953 2.953 2.951 2.953 2.951 2.953 2.951 2.951 2.951 2.953 2.951 2.951 2.951 2.951 2.951 2.951 2.951 2.953 2.953 2.951 2.951 2.951 2.951 2.951 2.951 2.951 2.951 2.951 2.951 2.953 2.953 2.953 2.951 2.951 2.951 2.951 2.953 2.951 2.951 2.951 2.951 2.953 2.953 2.951 2.953 2.953 2.953 2.951 2.953 2.953 2.951 2.953 2.953 2.953 2.951 2.951 2.951 2.953 2.953 2.953 2.951 2.950 2.951 2.955 2.950 2.955 2.867 2.756 2.742 2.740 2.738 2.736 2.736 2.738 2.740 2.742 2.744 2.744 2.746 2.748 2.748 2.748 2.750 2.752 2.756 2.760 2.762 2.764 2.764 2.766 2.768 2.770 2.770 2.771
2.975 2.975 2.975 2.975 2.977 2.975 2.975 2.975 2.975 2.975 2.975 2.975 2.973 2.975 2.975 2.975 2.975 2.975 2.975 2.975 2.973 2.975 2.973 2.973 2.975 2.975 2.973 2.973 2.973 2.973 2.973 2.973 2.973 2.975 2.973 2.973 2.973 2.973 2.973 2.975 2.973 2.975 2.973 2.975 2.975 2.975 2.975 2.975 2.973 2.973 2.973 2.973 2.973 2.973 2.975 2.975 2.975 2.975 2.975 2.975 2.973 2.973 2.975 2.975 2.975 2.975 2.973 2.975 2.973 2.975 2.973 2.975 2.973 2.973 2.973 2.975 2.975 2.973 2.973 2.975 2.973 2.973 2.973 2.973 2.973 2.975 2.973 2.975 2.975 2.975 2.973 2.973 2.973 2.975 2.973 2.973 2.973 2.973 2.973 2.975 2.973 2.973 2.973 2.975 2.975 2.973 2.973 2.973 2.973 2.973 2.973 2.973 2.973 2.973 2.973 2.973 2.973 2.973 2.973 2.973 2.973 2.970 2.970 2.973 2.970 2.973 2.973 2.970 2.970 2.970 2.970 2.970 2.970 2.970 2.970 2.970 2.970 2.970 2.970 2.970 2.973 2.970 2.970 2.970 2.969 2.970 2.970 2.970 2.970 2.970 2.970 2.970 2.969 2.969 2.969 2.969 2.969 2.969 2.969 2.969 2.969 2.969 2.969 2.969 2.969 2.969 2.967 2.967 2.969 2.969 2.967 2.967 2.967 2.967 2.967 2.967 2.967 2.967 2.967 2.967 2.967 2.967 2.967 2.967 2.967 2.967 2.963 2.963 2.963 2.967 2.967 2.963 2.963 2.963 2.963 2.963 2.963 2.963 2.963 2.963 2.963 2.963 2.963 2.963 2.963 2.963 2.963 2.963 2.963 2.963 2.963 2.963 2.963 2.963 2.963 2.963 2.963 2.963 2.963 2.963 2.963 2.963 2.963 2.963 2.963 2.963 2.963 2.963 2.963 2.963 2.963 2.963 2.963 2.963 2.963 2.963 2.963 2.960 2.963 2.963 2.963 2.963 2.963 2.963 2.963 2.963 2.963 2.963 2.963 2.963 2.960 2.960 2.963 2.963 2.960 2.960 2.960 2.963 2.963 2.960 2.960 2.963 2.960 2.963 2.960 2.960 2.960 2.960 2.960 2.960 2.959 2.959 2.960 2.960 2.960 2.960 2.960 2.960 2.960 2.959 2.960 2.959 2.959 2.959 2.959 2.959 2.959 2.960 2.960 2.959 2.959 2.959 2.959 2.959 2.959 2.959 2.959 2.959 2.959 2.957 2.959 2.957 2.959 2.959 2.957 2.959 2.959 2.957 2.957 2.957 2.959 2.957 2.957 2.957 2.957 2.957 2.957 2.957 2.957 2.955 2.955 2.957 2.955 2.957 2.957 2.957 2.957 2.959 2.957 2.957 2.957 2.957 2.957 2.957 2.957 2.957 2.957 2.957 2.957 2.957 2.955 2.957 2.955 2.955 2.955 2.955 2.955 2.955 2.955 2.955 2.957 2.955 2.955 2.955 2.955 2.955 2.955 2.955 2.955 2.955 2.955 2.955 2.955 2.953 2.953 2.953 2.953 2.955 2.955 2.955 2.955 2.955 2.955 2.955 2.953 2.953 2.953 2.953 2.953 2.955 2.953 2.953 2.951 2.951 2.951 2.953 2.953 2.953 2.953 2.953 2.953 2.953 2.953 2.953 2.953 2.953 2.953 2.953 2.953 2.953 2.953 2.953 2.953 2.953 2.951 2.953 2.951 2.953 2.953 2.953 2.951 2.951 2.951 2.951 2.951 2.953 2.953 2.951 2.951 2.953 2.953 2.953 2.951 2.951 2.951 2.951 2.951 2.951 2.951 2.951 2.951 2.951 2.953 2.953 2.951 2.953 2.953 2.951 2.953 2.953 2.951 2.951 2.953 2.953 2.953 2.953 2.953 2.953 2.953 2.953 2.951 2.951 2.953 2.953 2.951 2.951 2.951 2.951 2.951 2.953 2.953 2.953 2.953 2.951 2.951 2.951 2.955 2.950 2.957 2.818 2.758 2.742 2.740 2.738 2.738 2.736 2.738 2.740 2.740 2.742 2.744 2.748 2.746 2.748 2.750 2.752 2.752 2.756 2.758 2.760 2.764 2.766 2.768 2.770 2.770 2.771 2.771
2.977 2.975 2.975 2.975 2.973 2.975 2.975 2.975 2.975 2.973 2.975 2.973 2.975 2.975 2.975 2.975 2.973 2.973 2.975 2.975 2.975 2.975 2.975 2.975 2.975 2.975 2.973 2.975 2.973 2.973 2.975 2.973 2.973 2.973 2.973 2.973 2.975 2.973 2.973 2.973 2.975 2.973 2.973 2.975 2.975 2.975 2.975 2.975 2.973 2.975 2.973 2.973 2.973 2.973 2.973 2.975 2.975 2.973 2.973 2.975 2.975 2.975 2.975 2.975 2.975 2.975 2.975 2.973 2.975 2.973 2.975 2.973 2.975 2.973 2.975 2.973 2.975 2.973 2.973 2.973 2.975 2.973 2.975 2.973 2.975 2.975 2.975 2.973 2.973 2.973 2.973 2.973 2.973 2.973 2.975 2.975 2.975 2.973 2.973 2.973 2.973 2.973 2.975 2.973 2.973 2.973 2.973 2.973 2.973 2.973 2.973 2.973 2.973 2.973 2.973 2.973 2.973 2.973 2.973 2.973 2.970 2.970 2.970 2.973 2.973 2.970 2.973 2.973 2.973 2.973 2.970 2.970 2.970 2.970 2.970 2.970 2.970 2.970 2.970 2.970 2.970 2.970 2.970 2.970 2.970 2.970 2.970 2.970 2.970 2.970 2.970 2.970 2.969 2.969 2.969 2.969 2.969 2.969 2.969 2.969 2.969 2.969 2.969 2.967 2.967 2.969 2.969 2.969 2.969 2.969 2.969 2.969 2.967 2.967 2.967 2.967 2.967 2.967 2.967 2.967 2.967 2.967 2.963 2.963 2.963 2.967 2.967 2.963 2.963 2.967 2.967 2.963 2.963 2.963 2.963 2.963 2.963 2.963 2.963 2.963 2.963 2.963 2.963 2.963 2.963 2.963 2.963 2.963 2.963 2.963 2.963 2.963 2.963 2.963 2.963 2.963 2.963 2.963 2.963 2.963 2.963 2.963 2.963 2.963 2.963 2.963 2.963 2.963 2.963 2.963 2.963 2.963 2.963 2.963 2.963 2.963 2.963 2.963 2.963 2.963 2.963 2.963 2.963 2.963 2.963 2.963 2.960 2.960 2.963 2.963 2.960 2.960 2.963 2.960 2.960 2.960 2.963 2.960 2.963 2.963 2.963 2.963 2.960 2.960 2.963 2.960 2.960 2.960 2.963 2.960 2.960 2.960 2.959 2.960 2.960 2.959 2.960 2.959 2.959 2.959 2.960 2.960 2.959 2.959 2.959 2.959 2.959 2.959 2.960 2.959 2.959 2.959 2.959 2.959 2.959 2.959 2.959 2.959 2.959 2.959 2.959 2.959 2.959 2.959 2.959 2.959 2.957 2.959 2.959 2.957 2.959 2.959 2.957 2.957 2.957 2.959 2.957 2.957 2.957 2.957 2.957 2.955 2.957 2.957 2.957 2.957 2.957 2.957 2.957 2.955 2.957 2.957 2.957 2.957 2.957 2.957 2.957 2.957 2.957 2.957 2.957 2.957 2.957 2.957 2.955 2.955 2.957 2.957 2.955 2.955 2.955 2.955 2.957 2.955 2.955 2.955 2.955 2.955 2.955 2.955 2.955 2.955 2.955 2.953 2.953 2.953 2.955 2.955 2.955 2.953 2.955 2.953 2.955 2.955 2.953 2.953 2.953 2.955 2.955 2.953 2.953 2.953 2.953 2.953 2.953 2.951 2.951 2.953 2.953 2.953 2.953 2.953 2.953 2.953 2.953 2.953 2.953 2.951 2.953 2.953 2.953 2.951 2.953 2.953 2.953 2.953 2.953 2.951 2.953 2.953 2.953 2.951 2.953 2.953 2.953 2.953 2.951 2.951 2.951 2.951 2.951 2.951 2.951 2.953 2.953 2.951 2.951 2.951 2.953 2.951 2.951 2.951 2.953 2.953 2.953 2.951 2.953 2.953 2.953 2.951 2.951 2.951 2.953 2.951 2.953 2.953 2.953 2.953 2.953 2.953 2.951 2.951 2.951 2.951 2.951 2.951 2.951 2.951 2.951 2.951 2.953 2.953 2.953 2.951 2.951 2.951 2.955 2.950 2.957 2.812 2.758 2.744 2.742 2.740 2.738 2.736 2.738 2.738 2.742 2.744 2.746 2.746 2.746 2.746 2.748 2.750 2.754 2.756 2.760 2.762 2.764 2.766 2.768 2.768 2.770 2.770 2.771
2.975 2.975 2.975 2.975 2.973 2.973 2.975 2.973 2.975 2.975 2.975 2.973 2.975 2.975 2.975 2.975 2.975 2.977 2.975 2.975 2.975 2.975 2.975 2.975 2.975 2.975 2.975 2.975 2.973 2.973 2.975 2.973 2.973 2.973 2.973 2.973 2.973 2.973 2.973 2.973 2.973 2.973 2.973 2.973 2.973 2.975 2.975 2.973 2.973 2.973 2.973 2.973 2.973 2.973 2.973 2.973 2.973 2.975 2.975 2.975 2.975 2.973 2.973 2.973 2.973 2.975 2.975 2.975 2.975 2.973 2.975 2.975 2.973 2.975 2.973 2.975 2.975 2.973 2.973 2.975 2.973 2.975 2.973 2.973 2.973 2.973 2.975 2.975 2.973 2.973 2.973 2.973 2.973 2.973 2.973 2.975 2.973 2.973 2.973 2.973 2.975 2.975 2.973 2.975 2.973 2.973 2.973 2.973 2.973 2.970 2.973 2.973 2.973 2.973 2.973 2.973 2.973 2.973 2.973 2.970 2.973 2.973 2.970 2.970 2.970 2.970 2.970 2.970 2.973 2.970 2.970 2.970 2.970 2.970 2.970 2.970 2.970 2.970 2.970 2.970 2.970 2.970 2.970 2.970 2.970 2.970 2.970 2.970 2.969 2.970 2.969 2.970 2.970 2.969 2.969 2.969 2.969 2.969 2.969 2.969 2.969 2.969 2.969 2.969 2.969 2.969 2.969 2.967 2.967 2.969 2.969 2.967 2.967 2.967 2.967 2.967 2.967 2.967 2.967 2.967 2.967 2.967 2.967 2.967 2.967 2.967 2.967 2.967 2.963 2.963 2.963 2.967 2.963 2.963 2.967 2.963 2.963 2.963 2.963 2.963 2.963 2.963 2.963 2.963 2.963 2.963 2.963 2.963 2.963 2.963 2.963 2.963 2.963 2.963 2.963 2.963 2.963 2.963 2.963 2.963 2.963 2.963 2.963 2.963 2.963 2.963 2.963 2.963 2.963 2.963 2.963 2.963 2.963 2.963 2.963 2.963 2.963 2.963 2.963 2.963 2.963 2.963 2.963 2.963 2.963 2.963 2.960 2.963 2.963 2.963 2.963 2.963 2.960 2.963 2.963 2.960 2.960 2.963 2.963 2.963 2.960 2.960 2.960 2.963 2.960 2.963 2.960 2.960 2.960 2.960 2.960 2.960 2.960 2.960 2.959 2.960 2.959 2.960 2.960 2.959 2.960 2.960 2.959 2.959 2.959 2.960 2.960 2.959 2.959 2.959 2.959 2.957 2.957 2.959 2.959 2.959 2.959 2.959 2.959 2.959 2.960 2.959 2.959 2.959 2.957 2.957 2.959 2.959 2.959 2.957 2.957 2.957 2.957 2.957 2.957 2.957 2.957 2.957 2.957 2.957 2.957 2.957 2.957 2.957 2.957 2.957 2.957 2.957 2.957 2.959 2.959 2.957 2.957 2.957 2.957 2.957 2.957 2.957 2.957 2.957 2.955 2.957 2.955 2.955 2.955 2.957 2.955 2.955 2.955 2.955 2.957 2.955 2.957 2.955 2.955 2.955 2.955 2.955 2.955 2.955 2.955 2.955 2.955 2.955 2.955 2.953 2.953 2.955 2.953 2.953 2.955 2.953 2.953 2.953 2.953 2.953 2.953 2.955 2.953 2.953 2.953 2.953 2.953 2.953 2.951 2.951 2.953 2.953 2.953 2.953 2.953 2.953 2.953 2.953 2.953 2.953 2.953 2.953 2.953 2.953 2.953 2.953 2.953 2.951 2.953 2.953 2.953 2.953 2.953 2.953 2.951 2.953 2.951 2.951 2.951 2.951 2.951 2.951 2.951 2.951 2.953 2.951 2.953 2.953 2.951 2.951 2.951 2.951 2.951 2.953 2.953 2.951 2.953 2.951 2.953 2.953 2.953 2.953 2.953 2.951 2.953 2.951 2.951 2.951 2.951 2.951 2.951 2.953 2.951 2.951 2.951 2.951 2.951 2.953 2.953 2.953 2.953 2.953 2.951 2.953 2.953 2.953 2.953 2.951 2.951 2.951 2.955 2.950 2.957 2.809 2.758 2.744 2.740 2.740 2.738 2.736 2.738 2.740 2.742 2.744 2.744 2.746 2.746 2.748 2.748 2.752 2.754 2.756 2.758 2.760 2.764 2.766 2.768 2.768 2.770 2.770 2.771
2.975 2.975 2.973 2.973 2.973 2.975 2.973 2.975 2.975 2.975 2.975 2.975 2.975 2.973 2.975 2.975 2.975 2.975 2.975 2.975 2.973 2.975 2.975 2.975 2.973 2.973 2.975 2.973 2.973 2.973 2.973 2.975 2.975 2.973 2.973 2.973 2.973 2.973 2.973 2.973 2.973 2.973 2.973 2.973 2.973 2.975 2.975 2.975 2.973 2.975 2.975 2.973 2.973 2.975 2.973 2.973 2.973 2.975 2.973 2.973 2.973 2.973 2.973 2.973 2.973 2.973 2.973 2.973 2.973 2.973 2.973 2.973 2.975 2.973 2.975 2.973 2.975 2.973 2.973 2.973 2.973 2.973 2.973 2.973 2.973 2.973 2.973 2.973 2.973 2.973 2.973 2.973 2.973 2.973 2.973 2.973 2.973 2.973 2.973 2.973 2.973 2.973 2.973 2.973 2.973 2.970 2.973 2.973 2.973 2.973 2.973 2.973 2.973 2.970 2.970 2.973 2.973 2.973 2.973 2.973 2.973 2.970 2.973 2.973 2.970 2.970 2.970 2.973 2.970 2.970 2.970 2.970 2.970 2.970 2.970 2.970 2.970 2.970 2.970 2.970 2.970 2.970 2.970 2.970 2.970 2.970 2.970 2.970 2.969 2.969 2.969 2.969 2.970 2.969 2.970 2.969 2.969 2.969 2.969 2.969 2.969 2.967 2.967 2.969 2.969 2.967 2.967 2.969 2.969 2.969 2.967 2.967 2.967 2.967 2.967 2.963 2.967 2.963 2.967 2.967 2.963 2.967 2.967 2.967 2.967 2.967 2.967 2.967 2.963 2.963 2.963 2.963 2.963 2.963 2.963 2.963 2.963 2.963 2.963 2.963 2.963 2.963 2.963 2.963 2.963 2.963 2.963 2.963 2.963 2.963 2.963 2.963 2.963 2.963 2.963 2.963 2.963 2.963 2.963 2.963 2.963 2.963 2.963 2.963 2.963 2.963 2.963 2.963 2.963 2.963 2.963 2.963 2.963 2.963 2.963 2.963 2.963 2.963 2.963 2.963 2.963 2.963 2.963 2.960 2.960 2.963 2.963 2.960 2.963 2.963 2.963 2.960 2.963 2.960 2.963 2.960 2.960 2.960 2.960 2.960 2.960 2.960 2.960 2.960 2.960 2.960 2.960 2.960 2.960 2.960 2.960 2.960 2.959 2.959 2.959 2.959 2.960 2.960 2.960 2.960 2.960 2.960 2.959 2.959 2.959 2.959 2.959 2.959 2.959 2.959 2.959 2.959 2.959 2.959 2.959 2.959 2.959 2.959 2.959 2.959 2.959 2.959 2.959 2.959 2.957 2.959 2.959 2.959 2.957 2.957 2.959 2.959 2.957 2.957 2.957 2.955 2.955 2.957 2.957 2.957 2.957 2.955 2.955 2.957 2.957 2.957 2.957 2.957 2.957 2.957 2.957 2.957 2.957 2.955 2.955 2.957 2.957 2.957 2.957 2.957 2.957 2.957 2.955 2.955 2.955 2.955 2.955 2.955 2.955 2.957 2.955 2.955 2.955 2.955 2.955 2.955 2.955 2.955 2.955 2.955 2.955 2.955 2.955 2.955 2.955 2.955 2.953 2.953 2.955 2.955 2.955 2.955 2.955 2.955 2.955 2.955 2.953 2.953 2.953 2.953 2.953 2.953 2.953 2.953 2.953 2.953 2.953 2.953 2.953 2.953 2.953 2.953 2.953 2.953 2.953 2.953 2.953 2.953 2.953 2.951 2.953 2.953 2.953 2.951 2.953 2.953 2.953 2.953 2.951 2.951 2.951 2.951 2.951 2.951 2.951 2.951 2.951 2.953 2.953 2.951 2.951 2.953 2.951 2.951 2.951 2.951 2.953 2.953 2.951 2.951 2.953 2.953 2.951 2.951 2.953 2.953 2.951 2.951 2.953 2.951 2.951 2.951 2.951 2.951 2.951 2.951 2.951 2.951 2.953 2.953 2.953 2.953 2.951 2.951 2.951 2.951 2.951 2.951 2.953 2.953 2.953 2.953 2.953 2.953 2.951 2.953 2.955 2.951 2.957 2.805 2.758 2.744 2.742 2.740 2.738 2.736 2.738 2.740 2.740 2.742 2.746 2.746 2.746 2.748 2.748 2.750 2.752 2.756 2.758 2.762 2.764 2.766 2.768 2.768 2.770 2.770 2.771
2.975 2.973 2.975 2.973 2.973 2.973 2.973 2.973 2.975 2.975 2.975 2.973 2.973 2.973 2.975 2.975 2.975 2.973 2.973 2.975 2.975 2.975 2.975 2.975 2.975 2.975 2.975 2.975 2.973 2.975 2.973 2.973 2.973 2.973 2.973 2.973 2.973 2.973 2.975 2.975 2.975 2.973 2.973 2.973 2.973 2.973 2.973 2.973 2.975 2.973 2.973 2.973 2.973 2.975 2.975 2.973 2.973 2.975 2.973 2.973 2.975 2.975 2.975 2.975 2.973 2.973 2.973 2.973 2.975 2.973 2.973 2.975 2.973 2.973 2.973 2.975 2.973 2.973 2.973 2.973 2.973 2.973 2.973 2.973 2.973 2.973 2.973 2.975 2.973 2.973 2.973 2.973 2.973 2.973 2.973 2.973 2.973 2.973 2.973 2.973 2.973 2.973 2.975 2.973 2.973 2.973 2.970 2.973 2.973 2.973 2.973 2.973 2.973 2.973 2.973 2.973 2.973 2.973 2.973 2.973 2.970 2.973 2.973 2.970 2.970 2.970 2.973 2.970 2.970 2.970 2.970 2.970 2.970 2.970 2.970 2.970 2.970 2.970 2.970 2.970 2.970 2.970 2.970 2.973 2.970 2.970 2.970 2.969 2.970 2.969 2.969 2.969 2.969 2.970 2.969 2.969 2.969 2.969 2.969 2.969 2.967 2.969 2.967 2.967 2.969 2.969 2.967 2.967 2.967 2.969 2.967 2.967 2.969 2.967 2.967 2.967 2.967 2.967 2.967 2.967 2.963 2.963 2.967 2.967 2.967 2.967 2.967 2.967 2.967 2.967 2.963 2.963 2.963 2.963 2.963 2.963 2.963 2.963 2.963 2.963 2.963 2.963 2.963 2.963 2.963 2.963 2.963 2.963 2.963 2.963 2.963 2.963 2.963 2.963 2.963 2.963 2.963 2.963 2.963 2.963 2.963 2.963 2.963 2.963 2.963 2.963 2.963 2.963 2.963 2.963 2.963 2.963 2.963 2.963 2.963 2.963 2.963 2.963 2.963 2.963 2.963 2.960 2.960 2.960 2.960 2.960 2.960 2.960 2.963 2.963 2.963 2.963 2.963 2.963 2.963 2.963 2.960 2.960 2.960 2.960 2.960 2.960 2.960 2.960 2.960 2.960 2.960 2.960 2.960 2.960 2.960 2.960 2.959 2.960 2.960 2.960 2.959 2.959 2.959 2.960 2.960 2.959 2.959 2.960 2.959 2.959 2.959 2.959 2.959 2.959 2.960 2.959 2.959 2.959 2.959 2.959 2.959 2.959 2.959 2.959 2.959 2.959 2.959 2.959 2.959 2.959 2.959 2.959 2.959 2.959 2.959 2.957 2.957 2.957 2.957 2.957 2.955 2.957 2.957 2.957 2.957 2.957 2.957 2.957 2.957 2.957 2.957 2.957 2.957 2.957 2.957 2.957 2.957 2.957 2.955 2.957 2.957 2.957 2.955 2.957 2.955 2.955 2.955 2.955 2.955 2.955 2.955 2.955 2.957 2.955 2.955 2.955 2.955 2.955 2.955 2.955 2.955 2.955 2.955 2.955 2.955 2.955 2.955 2.955 2.955 2.955 2.953 2.953 2.953 2.955 2.953 2.953 2.955 2.955 2.955 2.953 2.953 2.953 2.953 2.953 2.955 2.955 2.953 2.953 2.953 2.953 2.953 2.953 2.953 2.953 2.953 2.953 2.953 2.953 2.953 2.953 2.953 2.953 2.953 2.951 2.953 2.951 2.951 2.951 2.951 2.953 2.953 2.951 2.953 2.951 2.953 2.953 2.951 2.953 2.953 2.953 2.953 2.953 2.953 2.951 2.953 2.953 2.951 2.951 2.953 2.953 2.951 2.951 2.951 2.951 2.953 2.951 2.951 2.953 2.953 2.951 2.951 2.951 2.951 2.951 2.951 2.953 2.953 2.953 2.953 2.953 2.953 2.953 2.953 2.953 2.953 2.951 2.951 2.951 2.953 2.951 2.951 2.951 2.953 2.951 2.953 2.953 2.953 2.951 2.951 2.953 2.955 2.950 2.959 2.805 2.758 2.744 2.742 2.740 2.738 2.736 2.738 2.740 2.742 2.744 2.744 2.746 2.746 2.748 2.748 2.750 2.752 2.756 2.758 2.760 2.764 2.766 2.768 2.768 2.770 2.770 2.771
2.973 2.975 2.975 2.973 2.973 2.973 2.975 2.975 2.975 2.973 2.973 2.973 2.973 2.973 2.975 2.973 2.973 2.973 2.973 2.973 2.973 2.975 2.973 2.973 2.973 2.973 2.973 2.975 2.975 2.973 2.973 2.973 2.973 2.975 2.975 2.973 2.973 2.973 2.973 2.973 2.973 2.973 2.973 2.973 2.973 2.973 2.973 2.973 2.975 2.973 2.975 2.975 2.973 2.973 2.973 2.973 2.973 2.973 2.973 2.975 2.973 2.973 2.975 2.975 2.973 2.973 2.973 2.973 2.975 2.973 2.973 2.975 2.973 2.975 2.975 2.973 2.973 2.973 2.973 2.973 2.973 2.973 2.973 2.970 2.973 2.973 2.973 2.973 2.973 2.973 2.973 2.973 2.973 2.973 2.973 2.973 2.973 2.973 2.973 2.973 2.973 2.973 2.973 2.973 2.973 2.973 2.973 2.973 2.973 2.973 2.973 2.973 2.973 2.973 2.970 2.973 2.973 2.973 2.970 2.973 2.973 2.970 2.973 2.970 2.970 2.970 2.970 2.970 2.973 2.970 2.970 2.970 2.970 2.970 2.970 2.969 2.970 2.970 2.970 2.970 2.970 2.970 2.970 2.970 2.970 2.970 2.969 2.969 2.969 2.969 2.970 2.969 2.970 2.969 2.969 2.969 2.969 2.969 2.969 2.969 2.969 2.969 2.969 2.969 2.969 2.969 2.969 2.967 2.969 2.969 2.967 2.967 2.969 2.969 2.969 2.967 2.967 2.967 2.967 2.963 2.963 2.967 2.967 2.963 2.963 2.963 2.963 2.963 2.967 2.967 2.963 2.963 2.963 2.967 2.967 2.963 2.963 2.963 2.963 2.963 2.963 2.963 2.963 2.963 2.963 2.963 2.963 2.963 2.963 2.963 2.963 2.963 2.963 2.963 2.963 2.963 2.963 2.963 2.963 2.963 2.963 2.963 2.963 2.963 2.963 2.963 2.963 2.963 2.963 2.963 2.963 2.963 2.963 2.960 2.963 2.963 2.963 2.960 2.963 2.963 2.963 2.960 2.963 2.963 2.963 2.960 2.963 2.960 2.960 2.963 2.963 2.963 2.963 2.960 2.963 2.960 2.960 2.960 2.960 2.960 2.960 2.963 2.960 2.960 2.960 2.960 2.960 2.960 2.960 2.960 2.960 2.960 2.960 2.960 2.959 2.960 2.960 2.959 2.959 2.960 2.960 2.959 2.960 2.960 2.960 2.959 2.959 2.959 2.959 2.959 2.959 2.959 2.959 2.959 2.957 2.959 2.959 2.959 2.959 2.959 2.959 2.957 2.957 2.957 2.957 2.957 2.957 2.957 2.957 2.957 2.957 2.957 2.959 2.957 2.957 2.957 2.957 2.957 2.955 2.957 2.957 2.957 2.955 2.955 2.957 2.957 2.957 2.957 2.957 2.957 2.957 2.957 2.957 2.957 2.957 2.957 2.957 2.957 2.957 2.955 2.957 2.955 2.955 2.955 2.955 2.955 2.955 2.955 2.955 2.955 2.955 2.955 2.957 2.955 2.955 2.955 2.955 2.955 2.955 2.955 2.953 2.955 2.955 2.953 2.953 2.955 2.955 2.955 2.953 2.955 2.955 2.955 2.955 2.955 2.953 2.955 2.953 2.955 2.953 2.953 2.953 2.951 2.953 2.951 2.951 2.953 2.951 2.953 2.953 2.953 2.953 2.953 2.953 2.951 2.953 2.953 2.953 2.951 2.951 2.953 2.951 2.951 2.951 2.951 2.953 2.953 2.951 2.951 2.951 2.953 2.951 2.951 2.951 2.953 2.953 2.951 2.953 2.951 2.953 2.953 2.953 2.951 2.951 2.953 2.953 2.951 2.951 2.953 2.951 2.953 2.951 2.953 2.953 2.953 2.951 2.951 2.953 2.953 2.953 2.951 2.953 2.951 2.953 2.951 2.953 2.951 2.953 2.951 2.953 2.951 2.953 2.951 2.951 2.951 2.953 2.953 2.953 2.953 2.951 2.953 2.953 2.953 2.953 2.951 2.951 2.953 2.957 2.951 2.957 2.803 2.758 2.744 2.742 2.740 2.738 2.736 2.738 2.740 2.742 2.744 2.744 2.746 2.748 2.748 2.748 2.750 2.752 2.756 2.758 2.762 2.764 2.766 2.766 2.770 2.770 2.771 2.771
2.975 2.975 2.975 2.975 2.975 2.973 2.973 2.975 2.975 2.973 2.973 2.975 2.973 2.975 2.973 2.975 2.975 2.973 2.975 2.975 2.973 2.973 2.973 2.973 2.973 2.973 2.973 2.973 2.973 2.973 2.973 2.975 2.973 2.973 2.973 2.973 2.973 2.975 2.973 2.973 2.973 2.970 2.973 2.973 2.975 2.973 2.973 2.973 2.975 2.973 2.975 2.975 2.973 2.973 2.973 2.975 2.973 2.975 2.973 2.973 2.970 2.973 2.973 2.975 2.975 2.975 2.975 2.973 2.973 2.973 2.973 2.975 2.973 2.975 2.973 2.973 2.973 2.975 2.973 2.973 2.973 2.973 2.973 2.973 2.975 2.973 2.973 2.973 2.975 2.973 2.975 2.973 2.973 2.973 2.973 2.975 2.973 2.973 2.973 2.973 2.975 2.973 2.973 2.973 2.973 2.973 2.970 2.970 2.970 2.973 2.973 2.973 2.970 2.973 2.973 2.973 2.970 2.970 2.973 2.973 2.973 2.970 2.973 2.970 2.970 2.970 2.970 2.973 2.970 2.970 2.970 2.970 2.970 2.970 2.970 2.970 2.969 2.969 2.970 2.970 2.969 2.970 2.970 2.970 2.970 2.970 2.970 2.970 2.970 2.969 2.970 2.970 2.969 2.969 2.970 2.969 2.969 2.969 2.969 2.970 2.969 2.969 2.969 2.969 2.967 2.969 2.969 2.969 2.969 2.969 2.969 2.969 2.969 2.967 2.967 2.967 2.967 2.969 2.967 2.967 2.967 2.967 2.967 2.967 2.963 2.967 2.963 2.963 2.963 2.963 2.963 2.963 2.963 2.963 2.963 2.963 2.963 2.963 2.963 2.963 2.963 2.963 2.963 2.963 2.963 2.963 2.963 2.963 2.963 2.963 2.963 2.963 2.963 2.963 2.963 2.963 2.963 2.963 2.963 2.963 2.963 2.963 2.960 2.963 2.963 2.963 2.963 2.963 2.960 2.963 2.963 2.963 2.960 2.963 2.963 2.963 2.963 2.963 2.963 2.963 2.963 2.963 2.963 2.963 2.963 2.963 2.963 2.960 2.963 2.960 2.960 2.963 2.960 2.963 2.963 2.960 2.963 2.960 2.960 2.960 2.960 2.960 2.963 2.960 2.960 2.960 2.960 2.960 2.960 2.960 2.960 2.959 2.960 2.960 2.959 2.960 2.960 2.959 2.959 2.959 2.959 2.960 2.960 2.959 2.959 2.960 2.959 2.959 2.959 2.959 2.959 2.959 2.960 2.959 2.959 2.959 2.957 2.959 2.957 2.957 2.957 2.959 2.959 2.959 2.959 2.959 2.959 2.957 2.957 2.959 2.959 2.959 2.957 2.957 2.957 2.957 2.955 2.957 2.957 2.957 2.957 2.957 2.957 2.957 2.957 2.957 2.957 2.957 2.957 2.957 2.957 2.957 2.957 2.957 2.955 2.955 2.955 2.955 2.955 2.955 2.955 2.955 2.955 2.955 2.955 2.955 2.955 2.955 2.955 2.955 2.955 2.955 2.955 2.955 2.955 2.955 2.955 2.955 2.953 2.955 2.955 2.955 2.955 2.955 2.955 2.953 2.955 2.953 2.953 2.955 2.955 2.953 2.953 2.953 2.955 2.953 2.953 2.953 2.955 2.953 2.953 2.953 2.953 2.953 2.951 2.953 2.953 2.953 2.953 2.953 2.953 2.953 2.953 2.951 2.953 2.953 2.953 2.953 2.953 2.951 2.953 2.951 2.951 2.953 2.951 2.951 2.951 2.953 2.953 2.953 2.953 2.953 2.953 2.953 2.953 2.951 2.953 2.951 2.951 2.951 2.951 2.953 2.953 2.953 2.951 2.951 2.951 2.951 2.951 2.951 2.953 2.953 2.953 2.951 2.951 2.953 2.953 2.953 2.953 2.951 2.951 2.953 2.951 2.953 2.951 2.951 2.951 2.953 2.953 2.951 2.951 2.951 2.951 2.951 2.953 2.951 2.951 2.951 2.953 2.951 2.953 2.953 2.953 2.951 2.951 2.953 2.957 2.951 2.957 2.800 2.758 2.742 2.740 2.740 2.736 2.738 2.738 2.740 2.742 2.744 2.746 2.746 2.748 2.748 2.748 2.750 2.752 2.756 2.758 2.760 2.764 2.764 2.768 2.768 2.771 2.771 2.771
2.973 2.973 2.975 2.973 2.973 2.973 2.973 2.973 2.973 2.973 2.973 2.973 2.973 2.973 2.975 2.975 2.975 2.973 2.973 2.973 2.973 2.973 2.973 2.973 2.973 2.973 2.973 2.973 2.973 2.975 2.973 2.973 2.973 2.975 2.973 2.973 2.973 2.973 2.975 2.973 2.973 2.973 2.973 2.973 2.975 2.973 2.975 2.975 2.975 2.973 2.973 2.975 2.975 2.973 2.973 2.975 2.973 2.975 2.973 2.973 2.973 2.975 2.973 2.973 2.975 2.973 2.973 2.975 2.973 2.973 2.975 2.973 2.975 2.973 2.973 2.973 2.975 2.973 2.973 2.973 2.973 2.973 2.973 2.973 2.973 2.970 2.973 2.973 2.973 2.973 2.973 2.970 2.973 2.970 2.973 2.973 2.973 2.973 2.973 2.973 2.973 2.973 2.973 2.973 2.973 2.973 2.973 2.970 2.973 2.973 2.973 2.973 2.973 2.973 2.973 2.970 2.973 2.973 2.970 2.970 2.973 2.970 2.973 2.970 2.970 2.970 2.970 2.973 2.970 2.970 2.973 2.970 2.970 2.970 2.970 2.970 2.970 2.969 2.970 2.970 2.970 2.969 2.969 2.970 2.970 2.970 2.970 2.969 2.970 2.969 2.969 2.969 2.969 2.969 2.969 2.969 2.969 2.969 2.969 2.969 2.969 2.969 2.969 2.969 2.969 2.969 2.969 2.969 2.969 2.969 2.967 2.967 2.967 2.967 2.967 2.967 2.967 2.967 2.967 2.967 2.967 2.963 2.967 2.963 2.963 2.963 2.963 2.963 2.967 2.967 2.967 2.967 2.963 2.963 2.963 2.963 2.963 2.963 2.963 2.963 2.963 2.963 2.963 2.963 2.963 2.963 2.963 2.963 2.963 2.963 2.963 2.963 2.963 2.963 2.963 2.963 2.963 2.963 2.963 2.963 2.963 2.963 2.963 2.963 2.963 2.963 2.963 2.963 2.963 2.963 2.960 2.963 2.963 2.963 2.960 2.960 2.963 2.963 2.963 2.963 2.963 2.960 2.963 2.963 2.960 2.960 2.960 2.960 2.963 2.960 2.960 2.960 2.960 2.963 2.960 2.960 2.960 2.960 2.960 2.960 2.960 2.960 2.960 2.960 2.960 2.960 2.960 2.960 2.960 2.960 2.960 2.960 2.960 2.960 2.960 2.960 2.960 2.960 2.960 2.960 2.960 2.959 2.959 2.959 2.959 2.959 2.960 2.960 2.959 2.959 2.959 2.959 2.959 2.959 2.959 2.957 2.957 2.959 2.959 2.959 2.959 2.957 2.957 2.959 2.959 2.957 2.957 2.957 2.957 2.957 2.959 2.957 2.957 2.957 2.957 2.957 2.957 2.955 2.957 2.957 2.955 2.957 2.955 2.955 2.957 2.957 2.957 2.955 2.957 2.957 2.957 2.957 2.957 2.955 2.957 2.957 2.957 2.957 2.957 2.957 2.955 2.955 2.955 2.955 2.955 2.955 2.955 2.955 2.955 2.955 2.955 2.955 2.955 2.953 2.955 2.955 2.955 2.955 2.955 2.955 2.955 2.955 2.955 2.955 2.953 2.955 2.955 2.955 2.953 2.955 2.953 2.953 2.953 2.955 2.953 2.955 2.953 2.953 2.953 2.953 2.953 2.951 2.953 2.953 2.951 2.953 2.953 2.953 2.953 2.951 2.951 2.953 2.953 2.951 2.953 2.953 2.951 2.951 2.951 2.951 2.951 2.951 2.951 2.951 2.951 2.951 2.953 2.951 2.953 2.951 2.951 2.951 2.951 2.951 2.951 2.951 2.953 2.953 2.951 2.951 2.951 2.953 2.951 2.951 2.953 2.951 2.953 2.953 2.951 2.951 2.953 2.953 2.951 2.953 2.951 2.953 2.951 2.951 2.953 2.951 2.953 2.953 2.953 2.953 2.953 2.951 2.953 2.951 2.953 2.953 2.953 2.951 2.951 2.951 2.951 2.951 2.951 2.951 2.951 2.953 2.955 2.953 2.955 2.951 2.951 2.953 2.957 2.953 2.957 2.799 2.758 2.744 2.742 2.738 2.736 2.736 2.738 2.740 2.742 2.744 2.744 2.746 2.746 2.748 2.750 2.750 2.752 2.754 2.758 2.762 2.764 2.766 2.766 2.768 2.770 2.771 2.771
2.975 2.975 2.975 2.973 2.973 2.975 2.973 2.973 2.973 2.973 2.973 2.973 2.973 2.973 2.973 2.973 2.975 2.973 2.975 2.973 2.973 2.973 2.973 2.973 2.973 2.973 2.973 2.973 2.973 2.973 2.973 2.973 2.973 2.973 2.973 2.975 2.973 2.973 2.973 2.973 2.975 2.973 2.973 2.973 2.973 2.975 2.975 2.973 2.973 2.973 2.973 2.973 2.973 2.973 2.975 2.973 2.973 2.975 2.975 2.973 2.973 2.973 2.973 2.973 2.973 2.973 2.973 2.973 2.975 2.973 2.973 2.973 2.973 2.973 2.973 2.973 2.973 2.973 2.973 2.973 2.973 2.973 2.973 2.973 2.973 2.975 2.973 2.973 2.973 2.973 2.973 2.975 2.973 2.973 2.973 2.973 2.973 2.973 2.973 2.973 2.973 2.973 2.973 2.973 2.973 2.973 2.973 2.973 2.973 2.973 2.973 2.973 2.973 2.973 2.973 2.973 2.973 2.973 2.970 2.970 2.973 2.973 2.973 2.973 2.973 2.970 2.970 2.969 2.970 2.970 2.970 2.970 2.970 2.970 2.970 2.970 2.969 2.970 2.970 2.970 2.970 2.970 2.970 2.970 2.969 2.969 2.969 2.969 2.969 2.970 2.969 2.969 2.969 2.969 2.969 2.969 2.969 2.969 2.969 2.969 2.969 2.969 2.969 2.969 2.969 2.969 2.969 2.969 2.969 2.969 2.967 2.969 2.967 2.967 2.967 2.967 2.967 2.967 2.967 2.967 2.967 2.967 2.963 2.967 2.963 2.963 2.963 2.963 2.967 2.963 2.963 2.963 2.963 2.967 2.963 2.963 2.963 2.963 2.963 2.963 2.963 2.963 2.963 2.963 2.963 2.963 2.963 2.963 2.963 2.963 2.963 2.963 2.963 2.963 2.963 2.963 2.963 2.963 2.963 2.963 2.963 2.963 2.963 2.963 2.963 2.963 2.960 2.963 2.963 2.963 2.960 2.963 2.963 2.963 2.963 2.963 2.963 2.963 2.960 2.963 2.960 2.960 2.960 2.960 2.960 2.960 2.960 2.960 2.960 2.960 2.960 2.960 2.960 2.960 2.960 2.960 2.960 2.960 2.960 2.960 2.960 2.959 2.959 2.960 2.960 2.960 2.960 2.960 2.960 2.960 2.960 2.960 2.960 2.960 2.960 2.960 2.959 2.959 2.960 2.959 2.959 2.959 2.959 2.959 2.959 2.959 2.959 2.959 2.959 2.959 2.959 2.959 2.959 2.959 2.959 2.960 2.959 2.959 2.959 2.959 2.957 2.959 2.959 2.959 2.959 2.959 2.959 2.959 2.959 2.957 2.957 2.957 2.959 2.959 2.957 2.957 2.957 2.957 2.957 2.955 2.955 2.957 2.957 2.957 2.957 2.957 2.957 2.957 2.957 2.957 2.957 2.957 2.957 2.957 2.955 2.957 2.957 2.957 2.955 2.955 2.955 2.955 2.957 2.955 2.955 2.955 2.955 2.955 2.957 2.955 2.955 2.955 2.955 2.957 2.957 2.955 2.955 2.955 2.955 2.955 2.953 2.955 2.955 2.955 2.955 2.953 2.953 2.955 2.955 2.953 2.953 2.953 2.953 2.953 2.953 2.953 2.955 2.953 2.953 2.953 2.955 2.951 2.953 2.951 2.953 2.953 2.953 2.953 2.953 2.953 2.953 2.953 2.953 2.953 2.953 2.951 2.951 2.951 2.951 2.953 2.951 2.951 2.951 2.951 2.953 2.953 2.953 2.951 2.951 2.951 2.951 2.953 2.951 2.951 2.951 2.953 2.951 2.951 2.953 2.953 2.951 2.951 2.953 2.953 2.953 2.951 2.951 2.951 2.951 2.953 2.951 2.951 2.953 2.951 2.953 2.953 2.953 2.953 2.951 2.951 2.953 2.951 2.953 2.951 2.951 2.953 2.951 2.951 2.953 2.951 2.951 2.951 2.951 2.951 2.951 2.953 2.951 2.953 2.953 2.953 2.955 2.955 2.953 2.951 2.951 2.953 2.957 2.955 2.957 2.795 2.758 2.742 2.740 2.738 2.734 2.736 2.738 2.740 2.742 2.742 2.744 2.746 2.746 2.748 2.748 2.750 2.752 2.756 2.758 2.760 2.762 2.764 2.766 2.768 2.770 2.771 2.771
